ply
format ascii 1.0
comment SurfExtract output
element vertex 177
property float x
property float y
property float z
property float nx
property float ny
property float nz
end_header
-0.118215 -0.035823 -0.200238 -0.263505 0.000000 -0.964658
-0.118215 -0.027139 -0.171815 -1.000000 0.000003 0.000007
-0.118215 -0.023938 -0.110166 -1.000000 0.000002 0.000002
-0.118215 -0.036024 -0.107056 -1.000000 0.000000 -0.000000
-0.118215 -0.022419 -0.028882 -1.000000 0.000000 -0.000002
-0.118215 -0.033748 0.000004 -1.000000 0.000001 -0.000004
-0.118215 -0.024308 0.041863 -1.000000 -0.000004 0.000001
-0.118215 -0.029210 0.066308 -1.000000 -0.000004 -0.000001
-0.118215 -0.028267 0.107058 -1.000000 -0.000003 -0.000000
-0.118215 -0.033644 0.135186 -1.000000 -0.000003 -0.000001
-0.118215 -0.015418 0.172477 -1.000000 0.000000 -0.000002
-0.118215 -0.016037 0.211850 -1.000000 0.000000 0.000000
-0.102532 0.020127 -0.228750 0.021331 0.055608 -0.998225
-0.118215 0.001763 -0.205246 -1.000000 0.000004 -0.000003
-0.118215 0.014182 -0.188606 -1.000000 -0.000003 0.000000
-0.118215 0.014182 -0.147954 -1.000000 -0.000003 0.000000
-0.118215 0.002212 -0.089419 -1.000000 0.000000 -0.000002
-0.118215 -0.008691 -0.063398 -1.000000 0.000000 -0.000002
-0.118215 -0.009636 -0.021484 -1.000000 -0.000004 -0.000003
-0.118215 -0.004358 0.021780 -1.000000 0.000000 -0.000006
-0.118215 -0.008039 0.074751 -1.000000 -0.000003 -0.000001
-0.118215 -0.007252 0.113172 -1.000000 -0.000003 -0.000000
-0.118215 -0.005441 0.131559 -1.000000 0.000000 0.000002
-0.118215 -0.005930 0.172477 -1.000000 0.000000 -0.000000
-0.118215 -0.005594 0.211850 -1.000000 0.000000 0.000000
-0.118215 0.032966 -0.226383 0.095358 0.909746 -0.404065
-0.118215 0.032944 -0.185851 -0.623047 0.781803 0.024434
-0.118215 0.032922 -0.148213 -0.619953 0.784227 0.025402
-0.118215 0.033806 -0.107057 -0.068338 0.805557 -0.588565
-0.118215 0.032444 -0.046719 -0.992831 0.092435 -0.075779
-0.118215 0.033039 -0.026264 -0.607599 0.793703 0.029316
-0.118215 0.033539 0.012831 -0.601445 0.798301 0.031302
-0.118215 0.048291 0.086736 -1.000000 0.000000 -0.000000
-0.118215 0.034669 0.120954 -1.000000 -0.000003 -0.000005
-0.118215 0.033983 0.164660 -1.000000 0.000000 0.000000
-0.118215 0.046051 0.175553 -1.000000 -0.000005 -0.000000
-0.118215 0.034686 0.211850 -1.000000 0.000005 0.000003
-0.075675 -0.046433 -0.224794 -0.161650 0.000000 -0.986848
-0.078025 -0.037845 -0.183839 -0.000002 -1.000000 0.000000
-0.077282 -0.037845 -0.144387 0.000000 -1.000000 -0.000001
-0.077536 -0.037845 -0.103962 0.000002 -1.000000 -0.000000
-0.077710 -0.037845 -0.064185 0.000003 -1.000000 -0.000002
-0.077743 -0.037845 -0.023839 0.000002 -1.000000 -0.000000
-0.077709 -0.037845 0.015628 0.000000 -1.000000 0.000002
-0.077551 -0.037845 0.055327 0.000000 -1.000000 -0.000000
-0.078179 -0.037845 0.096124 0.000002 -1.000000 -0.000000
-0.077780 -0.037845 0.135631 0.000002 -1.000000 -0.000002
-0.077431 -0.016845 0.175565 -0.000001 -1.000000 0.000000
-0.077759 -0.016845 0.215954 0.000000 -1.000000 0.000000
-0.074123 -0.005683 -0.228750 -0.000016 0.000020 -1.000000
-0.077911 -0.005662 0.228750 -0.000008 0.000000 1.000000
-0.074123 0.033719 -0.228750 -0.023739 0.759741 -0.649793
-0.077341 0.033885 -0.187562 0.000000 1.000000 -0.000001
-0.077757 0.033885 -0.147868 0.000000 1.000000 0.000000
-0.078083 0.033885 -0.108611 0.000000 1.000000 -0.000000
-0.077177 0.033885 -0.068518 0.000000 1.000000 0.000000
-0.077237 0.033885 -0.027854 0.000000 1.000000 0.000001
-0.077229 0.033885 0.011924 0.000000 1.000000 0.000000
-0.078092 0.033885 0.051933 0.000000 1.000000 0.000000
-0.077271 0.050295 0.091830 0.000000 1.000000 0.000003
-0.077720 0.050295 0.132183 0.000000 1.000000 -0.000002
-0.078027 0.050295 0.172083 0.000000 1.000000 0.000000
-0.077911 0.034354 0.228750 0.000008 -0.000000 1.000000
-0.033997 -0.045403 -0.225480 -0.000015 0.000000 -1.000000
-0.037567 -0.037845 -0.183837 0.000000 -1.000000 -0.000001
-0.037795 -0.037845 -0.144385 0.000000 -1.000000 -0.000000
-0.037943 -0.037845 -0.103961 0.000000 -1.000000 0.000000
-0.038051 -0.037845 -0.064183 0.000000 -1.000000 0.000000
-0.038088 -0.037845 -0.023839 -0.000000 -1.000000 -0.000000
-0.038092 -0.037845 0.015629 0.000000 -1.000000 0.000002
-0.038034 -0.037845 0.055328 -0.000000 -1.000000 -0.000002
-0.037890 -0.037845 0.096126 0.000000 -1.000000 0.000000
-0.037726 -0.037845 0.135633 0.000002 -1.000000 -0.000002
-0.037487 -0.037845 0.175771 0.000000 -1.000000 -0.000002
-0.038057 -0.037845 0.216231 0.000000 -1.000000 0.000000
-0.033715 -0.005896 -0.228750 0.000000 0.000019 -1.000000
-0.037791 -0.005874 0.228750 0.000007 0.000010 1.000000
-0.033715 0.033410 -0.228750 -0.022612 0.757526 -0.652414
-0.037798 0.033885 -0.187562 -0.000000 1.000000 0.000000
-0.038026 0.033885 -0.147867 0.000000 1.000000 -0.000001
-0.038210 0.033885 -0.108611 0.000000 1.000000 -0.000000
-0.037239 0.033885 -0.068518 0.000000 1.000000 0.000000
-0.037304 0.033885 -0.027854 0.000000 1.000000 0.000001
-0.037336 0.033885 0.011924 0.000000 1.000000 0.000000
-0.037305 0.033885 0.051933 0.000000 1.000000 0.000000
-0.037450 0.050295 0.091830 0.000000 1.000000 0.000003
-0.038170 0.050295 0.132183 0.000000 1.000000 -0.000002
-0.037899 0.050295 0.172083 0.000000 1.000000 0.000000
-0.037790 0.034070 0.228750 0.000015 -0.000010 1.000000
0.006322 -0.045396 -0.225480 0.000014 0.000000 -1.000000
0.002890 -0.037845 -0.183837 0.000000 -1.000000 -0.000001
0.002820 -0.037845 -0.144385 0.000000 -1.000000 -0.000000
0.002749 -0.037845 -0.103961 0.000000 -1.000000 0.000000
0.002679 -0.037845 -0.064184 0.000000 -1.000000 -0.000001
0.002609 -0.037845 -0.023840 0.000000 -1.000000 0.000000
0.002540 -0.037845 0.015629 0.000000 -1.000000 0.000000
0.002470 -0.037845 0.055328 0.000000 -1.000000 0.000000
0.002398 -0.037845 0.096125 -0.000000 -1.000000 -0.000002
0.002329 -0.037845 0.135633 -0.000002 -1.000000 -0.000000
0.002258 -0.037845 0.175771 0.000000 -1.000000 -0.000002
0.002187 -0.037845 0.216231 0.000000 -1.000000 0.000000
0.006537 -0.006109 -0.228750 -0.000000 -0.000018 -1.000000
0.002163 -0.006085 0.228750 -0.000007 -0.000009 1.000000
0.006538 0.033797 -0.228750 -0.022041 0.756412 -0.653724
0.002909 0.033885 -0.187561 -0.000000 1.000000 0.000001
0.002839 0.033885 -0.147866 -0.000000 1.000000 0.000000
0.002770 0.033885 -0.108610 -0.000000 1.000000 0.000000
0.002700 0.033885 -0.068518 0.000000 1.000000 0.000000
0.002628 0.033885 -0.027854 0.000000 1.000000 0.000001
0.002558 0.033885 0.011924 0.000000 1.000000 0.000000
0.002487 0.033885 0.051933 0.000000 1.000000 0.000000
0.002370 0.050295 0.091830 0.000000 1.000000 0.000003
0.002299 0.050295 0.132183 0.000000 1.000000 -0.000002
0.002229 0.050295 0.172082 -0.000000 1.000000 0.000004
0.002165 0.034480 0.228750 0.000013 0.000009 1.000000
0.046103 -0.046102 -0.225480 -0.000000 0.000000 -1.000000
0.042191 -0.037845 -0.183837 0.000000 -1.000000 -0.000001
0.042307 -0.037845 -0.144385 0.000000 -1.000000 -0.000000
0.042342 -0.037845 -0.103961 0.000000 -1.000000 0.000000
0.042338 -0.037845 -0.064184 0.000000 -1.000000 -0.000001
0.042262 -0.037845 -0.023840 0.000000 -1.000000 0.000000
0.042155 -0.037845 0.015627 0.000000 -1.000000 0.000000
0.041986 -0.037845 0.055326 0.000000 -1.000000 -0.000002
0.042687 -0.037845 0.096125 0.000002 -1.000000 -0.000002
0.042383 -0.037845 0.135632 0.000000 -1.000000 0.000002
0.042003 -0.037845 0.175771 0.000000 -1.000000 -0.000002
0.042431 -0.037845 0.216231 0.000000 -1.000000 0.000000
0.046263 -0.005474 -0.228750 -0.000006 0.000009 -1.000000
0.042749 -0.005460 0.228750 0.000006 -0.000009 1.000000
0.046263 0.033270 -0.228750 -0.020923 0.754174 -0.656341
0.042452 0.033885 -0.187561 -0.000000 1.000000 0.000000
0.042569 0.033885 -0.147866 0.000000 1.000000 0.000000
0.042643 0.033885 -0.108610 -0.000000 1.000000 0.000001
0.042638 0.033885 -0.068517 -0.000000 1.000000 0.000001
0.042561 0.033885 -0.027854 0.000000 1.000000 -0.000001
0.042452 0.033885 0.011924 0.000000 1.000000 0.000000
0.042280 0.033885 0.051933 0.000000 1.000000 0.000000
0.042191 0.050295 0.091830 0.000000 1.000000 0.000003
0.041849 0.050295 0.132182 0.000000 1.000000 -0.000004
0.042357 0.050295 0.172082 0.000002 1.000000 0.000000
0.042751 0.034012 0.228750 -0.000001 0.000018 1.000000
0.086293 -0.036122 -0.228750 -0.000012 0.000000 -1.000000
0.082647 -0.037845 -0.183839 -0.000000 -1.000000 0.000000
0.081794 -0.037845 -0.144385 -0.000002 -1.000000 0.000002
0.081936 -0.037845 -0.103961 0.000000 -1.000000 0.000000
0.081998 -0.037845 -0.064184 0.000000 -1.000000 0.000001
0.081917 -0.037845 -0.023839 0.000000 -1.000000 0.000000
0.082789 -0.037845 0.015628 0.000000 -1.000000 -0.000002
0.082492 -0.037845 0.055327 0.000000 -1.000000 0.000002
0.082018 -0.037845 0.096124 0.000000 -1.000000 -0.000002
0.082440 -0.037845 0.135632 0.000000 -1.000000 0.000002
0.082794 -0.045370 0.185961 -0.999117 0.000000 0.042004
0.082254 -0.016845 0.215955 0.000001 -1.000000 0.000000
0.086294 -0.005657 -0.228750 0.000000 -0.000000 -1.000000
0.118215 -0.005392 -0.185851 1.000000 -0.000000 0.000000
0.118215 -0.006334 -0.144924 1.000000 -0.000006 0.000000
0.118215 -0.006078 -0.104028 1.000000 0.000000 0.000000
0.118215 -0.005842 -0.066306 1.000000 0.000011 -0.000001
0.118215 -0.005591 -0.026262 1.000000 0.000011 -0.000000
0.118215 -0.005332 0.015164 1.000000 -0.000008 0.000002
0.118215 -0.006007 0.055040 1.000000 0.000000 -0.000002
0.118215 -0.005710 0.095189 1.000000 0.000004 -0.000002
0.118215 -0.005416 0.135009 1.000000 -0.000004 0.000002
0.118215 -0.005903 0.175554 1.000000 -0.000005 -0.000002
0.082543 -0.005641 0.228750 0.000006 0.000000 1.000000
0.086294 0.033510 -0.228750 -0.020357 0.753049 -0.657649
0.081995 0.033885 -0.187561 0.000000 1.000000 -0.000001
0.082299 0.033885 -0.147866 0.000000 1.000000 0.000001
0.082515 0.033885 -0.108610 0.000002 1.000000 0.000000
0.082576 0.033885 -0.068517 0.000000 1.000000 -0.000000
0.082493 0.033885 -0.027854 0.000000 1.000000 0.000000
0.082345 0.033885 0.011924 0.000000 1.000000 0.000000
0.082072 0.033885 0.051933 0.000000 1.000000 0.000000
0.082012 0.050295 0.091830 0.000000 1.000000 0.000003
0.082319 0.050295 0.132183 0.000000 1.000000 0.000000
0.082486 0.050295 0.172083 0.000000 1.000000 -0.000000
0.082544 0.034277 0.228750 -0.000006 0.000009 1.000000
