ply
format ascii 1.0
comment SurfExtract output
element vertex 62
property float x
property float y
property float z
property float nx
property float ny
property float nz
end_header
-0.050484 -0.049321 -0.053551 -0.976774 -0.151892 -0.151137
-0.050582 -0.048971 -0.044599 -0.962892 -0.269887 -0.000001
-0.050577 -0.048988 -0.005677 -0.962891 -0.269890 -0.000002
-0.050602 -0.048902 0.034277 -0.962890 -0.269893 0.000001
-0.046056 -0.048854 0.074250 -0.942768 0.000000 0.333450
-0.065250 0.003951 -0.083565 -1.000000 0.000011 -0.000012
-0.065250 0.004569 -0.036207 -1.000000 -0.000009 -0.000000
-0.065250 0.000734 0.032960 -1.000000 0.000001 -0.000011
-0.065250 0.000311 0.034896 -1.000000 -0.000009 -0.000000
-0.063689 -0.009127 0.074290 -0.871868 -0.489738 -0.001732
-0.060309 0.044425 -0.085875 0.291285 0.274148 -0.916513
-0.065250 0.030406 -0.060517 -1.000000 0.000008 0.000000
-0.065250 0.039406 -0.026547 -1.000000 -0.000005 0.000005
-0.065250 0.014935 -0.005015 -1.000000 0.000000 0.000000
-0.065250 0.013206 0.048373 -1.000000 -0.000011 0.000018
-0.065250 0.016130 0.078446 -1.000000 -0.000000 0.000006
-0.065250 0.052789 -0.071135 -1.000000 -0.000001 0.000012
-0.065250 0.056129 -0.040987 -1.000000 0.000009 -0.000001
-0.065250 0.056135 -0.002563 -1.000000 0.000000 0.000000
-0.065250 0.056083 0.038123 -1.000000 0.000000 -0.000000
-0.065250 0.056121 0.078446 -1.000000 -0.000000 0.000007
-0.025170 -0.068850 -0.004376 -0.001281 -0.999997 0.002055
-0.024776 -0.068481 -0.054495 -0.699569 -0.684014 -0.206704
-0.020279 -0.068332 -0.040894 0.203467 -0.979082 -0.000013
-0.021246 -0.068533 -0.000923 0.203461 -0.979083 0.000000
-0.022061 -0.068638 0.039113 0.068125 -0.997677 0.000001
0.009599 -0.049096 0.074157 -0.942767 0.000000 0.333453
-0.020656 -0.023907 -0.054495 0.000004 -0.000000 -1.000000
-0.020421 -0.016350 -0.044090 0.837271 -0.176656 -0.517465
-0.021342 -0.016350 0.028322 0.699339 0.332345 -0.632828
-0.024892 -0.024108 0.054495 0.000008 0.000000 1.000000
-0.025064 -0.016350 0.078855 0.000003 -1.000000 -0.000000
-0.020314 0.016057 -0.055390 -0.437354 0.000000 -0.899289
-0.025013 0.016023 0.053094 -0.497535 0.000000 0.867444
-0.020314 0.055956 -0.055390 -0.437353 0.000000 -0.899290
-0.025171 0.058350 -0.045798 0.000005 1.000000 -0.000004
-0.024934 0.058350 -0.005611 -0.000005 1.000000 0.000000
-0.025013 0.055836 0.053094 -0.497535 0.000000 0.867444
0.015000 -0.058957 -0.072559 0.101751 0.000000 -0.994810
0.019409 -0.034017 -0.038250 0.000000 0.000000 -1.000000
0.019386 -0.037802 -0.003280 0.622666 -0.760851 -0.182736
0.014998 -0.058933 0.069075 0.706497 0.000000 -0.707716
0.014760 -0.052350 0.079017 0.000007 -1.000000 0.000000
0.019570 -0.023862 -0.079799 0.193068 0.000000 -0.981185
0.019408 -0.023979 -0.038250 0.000004 -0.000005 -1.000000
0.019096 -0.016350 -0.000921 0.942657 -0.333763 0.000015
0.016569 -0.023850 0.038250 0.000008 0.000000 1.000000
0.019570 -0.023862 0.079799 0.193057 0.000000 0.981188
0.017832 0.016128 -0.059219 0.185399 0.000000 -0.982663
0.044730 0.016088 -0.045408 0.658529 0.000000 -0.752555
0.054749 0.014285 0.034088 0.802627 -0.000007 0.596481
0.018384 0.015804 0.059115 0.187532 0.000000 0.982258
0.016185 0.056114 -0.059530 0.185397 0.000000 -0.982664
0.014882 0.058350 -0.045797 0.000000 1.000000 0.000000
0.014756 0.058350 -0.005611 0.000005 1.000000 -0.000013
0.018384 0.056094 0.059115 0.187532 0.000000 0.982258
0.056617 -0.004081 -0.031048 0.861575 0.000000 -0.507630
0.054982 -0.007350 -0.001250 0.000000 -1.000000 -0.000000
0.056216 0.016140 -0.031730 0.861572 0.000000 -0.507635
0.057830 0.015910 0.028990 0.861575 0.000000 0.507631
0.055615 0.056118 -0.032749 0.861575 0.000000 -0.507630
0.057830 0.055931 0.028990 0.861575 0.000000 0.507631
