ply
format ascii 1.0
comment SurfExtract output
element vertex 90
property float x
property float y
property float z
property float nx
property float ny
property float nz
end_header
-0.101379 -0.055725 0.000643 -0.999685 0.000000 0.025087
-0.101379 -0.020721 0.000643 -0.999685 0.000000 0.025087
-0.083362 -0.055567 -0.055360 -0.821796 0.000000 -0.569782
-0.096571 -0.055713 -0.029727 -0.962272 0.000000 -0.272090
-0.100352 -0.055931 -0.013345 -0.987548 0.000000 -0.157317
-0.097631 -0.055868 0.025941 -0.962271 0.000000 0.272095
-0.074724 -0.055695 0.065793 -0.728415 -0.000015 0.685136
-0.081954 -0.020562 -0.057390 -0.821803 0.000000 -0.569772
-0.096571 -0.020683 -0.029727 -0.962272 0.000000 -0.272090
-0.100352 -0.020738 -0.013345 -0.987548 0.000000 -0.157317
-0.097631 -0.020880 0.025941 -0.962270 0.000000 0.272095
-0.074724 -0.020647 0.065793 -0.728421 0.000000 0.685130
-0.081487 0.019132 -0.058063 -0.788908 0.000000 -0.614512
-0.096571 0.019192 -0.029727 -0.962272 0.000000 -0.272090
-0.100866 0.019286 -0.009958 -0.994710 0.000000 -0.102724
-0.097631 0.019375 0.025941 -0.962270 0.000000 0.272095
-0.074724 0.019259 0.065793 -0.728421 0.000000 0.685130
-0.081487 0.059151 -0.058063 -0.788908 0.000000 -0.614512
-0.096571 0.059440 -0.029727 -0.962272 0.000000 -0.272089
-0.100866 0.059102 -0.009958 -0.994710 0.000000 -0.102724
-0.096565 0.059442 0.029710 -0.962271 0.000000 0.272092
-0.073668 0.059447 0.066782 -0.677257 0.000000 0.735747
-0.056660 -0.055782 -0.080251 -0.499999 0.000000 -0.866026
-0.061096 -0.057030 -0.049635 0.000000 -1.000000 0.000003
-0.061306 -0.057030 -0.004792 0.000000 -1.000000 -0.000004
-0.061121 -0.057030 0.030457 -0.000005 -1.000000 -0.000004
-0.061154 -0.057030 0.075279 0.000005 -1.000000 -0.000001
-0.056660 -0.020768 -0.080251 -0.499999 0.000000 -0.866026
-0.061222 -0.020786 0.077168 -0.592245 0.000000 0.805758
-0.056660 0.019394 -0.080251 -0.499999 0.000000 -0.866026
-0.061222 0.019411 0.077168 -0.592245 0.000000 0.805758
-0.056660 0.059214 -0.080251 -0.499999 0.000000 -0.866026
-0.061051 0.065550 -0.053895 0.000000 1.000000 -0.000000
-0.061255 0.065550 -0.014157 0.000000 1.000000 0.000007
-0.061241 0.065550 0.025933 0.000000 1.000000 -0.000008
-0.061222 0.059266 0.077168 -0.592245 0.000000 0.805758
-0.009519 -0.032419 -0.094482 -0.027955 0.002300 -0.999606
-0.016823 -0.055677 -0.093877 -0.082590 0.000000 -0.996584
-0.021106 -0.057030 -0.049635 0.000004 -1.000000 0.000003
-0.021015 -0.057030 -0.009516 -0.000000 -1.000000 0.000004
-0.021150 -0.057030 0.030456 -0.000000 -1.000000 0.000004
-0.021069 -0.057030 0.070178 -0.000005 -1.000000 0.000000
-0.009518 0.008777 -0.094482 -0.027393 -0.000118 -0.999625
-0.016823 -0.020812 -0.093877 -0.082590 0.000000 -0.996584
-0.011739 -0.023414 -0.004652 0.720679 -0.000127 0.693269
-0.021330 -0.020665 0.093306 -0.191713 0.000000 0.981451
-0.016823 0.019389 -0.093877 -0.082590 0.000000 -0.996584
-0.011599 0.014536 -0.004776 0.686245 0.000732 0.727370
-0.021330 0.019252 0.093306 -0.191713 0.000000 0.981451
-0.018524 0.059418 -0.093736 -0.082591 0.000000 -0.996584
-0.016517 0.059370 -0.016151 0.524445 0.000001 0.851444
-0.019379 0.059303 -0.014056 0.660607 -0.000000 0.750732
-0.021177 0.065550 0.025935 0.000000 1.000000 0.000008
-0.021330 0.059169 0.093306 -0.191713 0.000000 0.981451
0.038799 -0.065550 -0.034508 0.000007 -0.999969 0.007895
0.022991 -0.055768 -0.089574 0.350602 0.000000 -0.936524
0.018884 -0.057030 -0.049635 -0.000004 -1.000000 -0.000003
0.018935 -0.057030 -0.009517 -0.000004 -1.000000 0.000003
0.018821 -0.057030 0.030456 0.000000 -1.000000 0.000000
0.018909 -0.057030 0.070177 0.000000 -1.000000 0.000000
0.022991 -0.020792 -0.089574 0.350602 0.000000 -0.936524
0.019953 -0.020621 0.090513 0.245501 0.000000 0.969396
0.019209 0.019425 -0.090737 0.245498 0.000000 -0.969397
0.019953 0.019078 0.090513 0.245501 0.000000 0.969396
0.019209 0.059428 -0.090737 0.245498 0.000000 -0.969397
0.018890 0.065550 -0.049081 0.000000 1.000000 0.000000
0.018643 0.065550 -0.014157 -0.000000 1.000000 0.000007
0.018888 0.065550 0.025934 0.000010 1.000000 0.000008
0.019953 0.059162 0.090513 0.245501 0.000000 0.969396
0.061951 -0.055576 -0.064548 0.716793 -0.001258 -0.697285
0.058875 -0.057030 -0.049635 0.000004 -1.000000 0.000003
0.058885 -0.057030 -0.009518 0.000004 -1.000000 0.000007
0.058793 -0.057030 0.030456 -0.000005 -1.000000 0.000008
0.058812 -0.055711 0.067737 0.716784 -0.000847 0.697294
0.061972 -0.020905 -0.064588 0.716788 -0.001259 -0.697290
0.073463 -0.020701 -0.049522 0.851931 -0.001175 -0.523652
0.086913 -0.020593 -0.009994 0.993934 0.000000 -0.109977
0.061952 -0.020550 0.064552 0.716795 -0.000847 0.697284
0.058834 -0.020821 0.067776 0.732382 -0.002495 0.680889
0.060954 0.019444 -0.065711 0.709583 -0.002183 -0.704619
0.070699 0.019439 -0.053921 0.807057 0.000000 -0.590473
0.086913 0.019319 -0.009994 0.993934 0.000000 -0.109977
0.061190 0.019098 0.065397 0.736244 -0.003589 0.676707
0.061707 0.047921 0.070387 0.085527 -0.764188 0.639299
0.060125 0.054465 -0.069554 0.508407 0.860438 -0.034203
0.058863 0.065550 -0.053896 -0.000000 1.000000 -0.000006
0.058796 0.065550 -0.014157 0.000000 1.000000 -0.000014
0.061192 0.059435 0.065401 0.716729 0.012742 0.697235
0.058801 0.054501 0.068478 0.134146 0.990841 0.015482
0.101284 0.049341 0.000307 0.718435 0.281131 -0.636251
