ply
format ascii 1.0
comment SurfExtract output
element vertex 229
property float x
property float y
property float z
property float nx
property float ny
property float nz
end_header
-0.035565 0.101880 -0.157328 -1.000000 -0.000000 0.000000
-0.035565 0.145310 -0.197159 -0.095179 -0.083419 -0.991959
-0.035565 0.138261 -0.132171 -1.000000 -0.000001 0.000001
-0.035565 0.184865 -0.167921 -1.000000 0.000001 0.000000
-0.034045 -0.228600 0.146925 -0.641635 -0.660782 0.389451
-0.032676 -0.227318 -0.198240 0.784581 -0.544720 -0.296164
-0.035565 -0.223786 -0.196884 -0.089237 0.000000 -0.996010
-0.035565 -0.224487 -0.157695 -1.000000 0.000000 0.000000
-0.035565 -0.223971 -0.115766 -1.000000 0.000000 0.000000
-0.035565 -0.224626 -0.076981 -1.000000 0.000000 0.000000
-0.035565 -0.224153 -0.036398 -1.000000 0.000000 0.000000
-0.035565 -0.224243 0.003116 -1.000000 0.000000 0.000001
-0.035565 -0.224335 0.043353 -1.000000 0.000000 -0.000001
-0.035565 -0.223948 0.081964 -1.000000 0.000000 -0.000000
-0.035565 -0.224063 0.122119 -1.000000 0.000000 -0.000001
-0.035565 -0.223750 0.162922 -1.000000 0.000000 -0.000001
-0.032113 -0.173254 -0.198240 0.609196 -0.019734 -0.792774
-0.035565 -0.184481 -0.196884 -0.089237 0.000000 -0.996010
-0.035565 -0.184116 -0.157695 -1.000000 0.000000 0.000000
-0.035565 -0.183997 -0.115766 -1.000000 0.000000 0.000000
-0.035565 -0.183888 -0.076981 -1.000000 0.000000 0.000000
-0.035565 -0.183990 -0.036398 -1.000000 0.000000 0.000000
-0.035565 -0.183661 0.003116 -1.000000 0.000000 0.000001
-0.035565 -0.184542 0.043353 -1.000000 0.000000 -0.000001
-0.035565 -0.184008 0.081964 -1.000000 0.000000 -0.000000
-0.035565 -0.184229 0.122119 -1.000000 0.000000 -0.000001
-0.035565 -0.184239 0.162922 -1.000000 0.000000 -0.000001
-0.031735 -0.128385 -0.198240 0.651631 -0.021850 -0.758221
-0.035565 -0.143907 -0.196884 -0.089237 0.000000 -0.996010
-0.035565 -0.143745 -0.157695 -1.000000 0.000000 0.000000
-0.035565 -0.144023 -0.115766 -1.000000 0.000000 0.000000
-0.035565 -0.144281 -0.076981 -1.000000 0.000000 0.000000
-0.035565 -0.143827 -0.036398 -1.000000 0.000000 0.000000
-0.035565 -0.144119 0.003116 -1.000000 0.000000 0.000001
-0.035565 -0.143753 0.043353 -1.000000 0.000000 -0.000001
-0.035565 -0.144068 0.081964 -1.000000 0.000000 -0.000000
-0.035565 -0.144396 0.122119 -1.000000 0.000000 -0.000001
-0.035565 -0.143870 0.162922 -1.000000 0.000000 -0.000001
-0.034637 -0.092063 -0.198240 -0.311752 -0.058691 -0.948349
-0.035565 -0.104602 -0.196884 -0.089237 0.000000 -0.996010
-0.035565 -0.104597 -0.157695 -1.000000 0.000000 0.000000
-0.035565 -0.104049 -0.115766 -1.000000 0.000000 0.000000
-0.035565 -0.104674 -0.076981 -1.000000 0.000000 0.000000
-0.035565 -0.103663 -0.036398 -1.000000 0.000000 0.000000
-0.035565 -0.104577 0.003116 -1.000000 0.000000 0.000001
-0.035565 -0.103960 0.043353 -1.000000 0.000000 -0.000001
-0.035565 -0.104128 0.081964 -1.000000 0.000000 -0.000000
-0.035565 -0.103657 0.122119 -1.000000 0.000000 -0.000001
-0.035565 -0.104359 0.162922 -1.000000 0.000000 -0.000001
-0.032304 -0.056421 -0.198240 0.499736 -0.018461 -0.865981
-0.035565 -0.064029 -0.196884 -0.089237 0.000000 -0.996010
-0.035565 -0.064226 -0.157695 -1.000000 0.000000 0.000000
-0.035565 -0.064075 -0.115766 -1.000000 0.000000 0.000000
-0.035565 -0.063936 -0.076981 -1.000000 0.000000 0.000000
-0.035565 -0.064586 -0.036398 -1.000000 0.000000 0.000000
-0.035565 -0.063994 0.003116 -1.000000 0.000000 0.000001
-0.035565 -0.064166 0.043353 -1.000000 0.000000 -0.000001
-0.035565 -0.064188 0.081964 -1.000000 0.000000 -0.000000
-0.035565 -0.063823 0.122119 -1.000000 0.000000 -0.000001
-0.035565 -0.063990 0.162922 -1.000000 0.000000 -0.000001
-0.035565 -0.024724 -0.196884 -0.089237 0.000000 -0.996010
-0.035565 -0.023855 -0.157695 -1.000000 0.000000 0.000000
-0.035565 -0.024101 -0.115766 -1.000000 0.000000 0.000000
-0.035565 -0.024329 -0.076981 -1.000000 0.000000 0.000000
-0.035565 -0.024423 -0.036398 -1.000000 0.000000 0.000000
-0.035565 -0.024452 0.003116 -1.000000 0.000000 0.000001
-0.035565 -0.024372 0.043353 -1.000000 0.000000 -0.000002
-0.035565 -0.024248 0.081964 -1.000000 0.000000 -0.000000
-0.035565 -0.023990 0.122119 -1.000000 0.000000 -0.000001
-0.035565 -0.023620 0.162922 -1.000000 0.000000 -0.000001
-0.031782 0.030419 -0.198240 0.645420 -0.026041 -0.763384
-0.035565 0.015849 -0.196884 -0.089237 0.000000 -0.996010
-0.035565 0.015292 -0.157695 -1.000000 0.000000 0.000000
-0.035565 0.015873 -0.115766 -1.000000 0.000000 0.000000
-0.035565 0.016368 -0.074499 -1.000000 0.000000 0.000001
-0.035565 0.015741 -0.036398 -1.000000 0.000000 0.000000
-0.035565 0.016130 0.003116 -1.000000 0.000000 0.000001
-0.035565 0.016380 0.045272 -1.000000 0.000000 -0.000001
-0.035565 0.015691 0.081964 -1.000000 0.000000 -0.000000
-0.035565 0.015843 0.122119 -1.000000 0.000000 -0.000001
-0.035565 0.015890 0.162922 -1.000000 0.000000 -0.000001
-0.035155 0.056008 -0.198240 -0.504153 -0.104954 -0.857213
-0.035565 0.056264 -0.193768 -1.000000 0.000000 0.000000
-0.035565 0.055663 -0.157695 -1.000000 0.000000 0.000000
-0.035565 0.055846 -0.115766 -1.000000 0.000000 0.000000
-0.035565 0.056016 -0.076981 -1.000000 0.000000 0.000000
-0.035565 0.055904 -0.036398 -1.000000 0.000000 0.000000
-0.035565 0.055671 0.003116 -1.000000 0.000000 0.000001
-0.035565 0.056209 0.043353 -1.000000 0.000000 -0.000002
-0.035565 0.056345 0.085464 -1.000000 0.000000 0.000000
-0.035565 0.056356 0.125292 -1.000000 0.000000 0.000001
-0.035565 0.056260 0.162922 -1.000000 0.000000 -0.000001
-0.031750 0.092529 -0.198240 0.647680 -0.028345 -0.761385
-0.035565 0.095727 -0.196884 -0.089237 0.000000 -0.996010
-0.035565 0.096034 -0.157695 -1.000000 0.000000 0.000000
-0.035565 0.095820 -0.115766 -1.000000 0.000000 0.000000
-0.035565 0.095623 -0.076981 -1.000000 0.000000 -0.000001
-0.035565 0.096066 -0.036398 -1.000000 0.000000 0.000000
-0.035565 0.096254 0.003116 -1.000000 0.000000 0.000001
-0.035565 0.096002 0.043353 -1.000000 0.000000 -0.000002
-0.035565 0.096319 0.083718 -1.000000 0.000000 -0.000001
-0.035565 0.096223 0.123709 -1.000000 0.000000 -0.000001
-0.035565 0.096264 0.165779 -1.000000 0.000000 0.000001
-0.031605 0.131509 -0.198240 0.671787 0.031458 -0.740076
-0.035565 0.136300 -0.196884 -0.089237 0.000000 -0.996010
-0.035565 0.136038 -0.154794 -1.000000 0.000000 0.000000
-0.035565 0.135794 -0.115766 -1.000000 0.000000 0.000001
-0.035565 0.136360 -0.076981 -1.000000 0.000000 -0.000001
-0.035565 0.136229 -0.036398 -1.000000 0.000000 0.000000
-0.035565 0.135795 0.003116 -1.000000 0.000000 0.000001
-0.035565 0.135795 0.043353 -1.000000 0.000000 -0.000002
-0.035565 0.136175 0.083718 -1.000000 0.000000 -0.000001
-0.035565 0.136249 0.122119 -1.000000 0.000000 -0.000001
-0.035565 0.136140 0.162922 -1.000000 0.000000 -0.000001
-0.031612 0.193070 -0.198240 0.666878 0.001206 -0.745166
-0.035565 0.176379 -0.193768 -1.000000 0.000000 0.000000
-0.035565 0.176300 -0.154794 -1.000000 0.000000 0.000001
-0.035565 0.175768 -0.115766 -1.000000 0.000000 0.000001
-0.035565 0.175967 -0.076981 -1.000000 0.000000 -0.000001
-0.035565 0.176392 -0.036398 -1.000000 0.000000 0.000000
-0.035565 0.176377 0.003116 -1.000000 0.000000 0.000001
-0.035565 0.176196 0.045272 -1.000000 0.000000 -0.000001
-0.035565 0.176031 0.083718 -1.000000 0.000000 -0.000001
-0.035565 0.176282 0.125292 -1.000000 0.000000 0.000001
-0.035565 0.176175 0.164353 -1.000000 0.000000 0.000000
-0.034449 0.220971 -0.198240 0.353883 0.496327 -0.792734
-0.035565 0.216178 -0.196884 -0.089237 0.000000 -0.996010
-0.035565 0.215924 -0.157695 -1.000000 0.000000 -0.000001
-0.035565 0.215741 -0.115766 -1.000000 0.000000 0.000001
-0.035565 0.216164 -0.074499 -1.000000 0.000000 0.000001
-0.035565 0.216037 -0.034113 -1.000000 0.000000 -0.000001
-0.035565 0.215919 0.003116 -1.000000 0.000000 0.000001
-0.035565 0.216377 0.043353 -1.000000 0.000000 -0.000002
-0.035565 0.216383 0.085464 -1.000000 0.000000 0.000000
-0.035565 0.216388 0.123709 -1.000000 0.000000 -0.000001
-0.035565 0.216059 0.165779 -1.000000 0.000000 0.000001
0.005779 -0.203620 -0.073272 0.084831 -0.996395 -0.000002
0.004736 -0.203709 -0.033538 0.084843 -0.996394 0.000002
0.004583 -0.203722 0.005891 0.084827 -0.996396 -0.000006
0.005235 -0.203667 0.045870 0.084835 -0.996395 0.000008
0.005051 -0.203682 0.086145 0.084817 -0.996397 -0.000004
0.004867 -0.203698 0.126332 0.084831 -0.996395 0.000008
0.004697 -0.203713 0.163699 0.095375 -0.806214 0.583886
0.004455 -0.179465 -0.185945 0.011975 -0.000350 -0.999928
0.004455 -0.178633 -0.157358 0.732440 0.000000 0.680831
0.009009 -0.183891 -0.076740 0.000001 -0.000004 -1.000000
0.027557 -0.148752 -0.035215 0.750638 0.660714 0.000001
0.027477 -0.148661 0.005765 0.750638 0.660714 -0.000001
0.027616 -0.148819 0.041826 0.750635 0.660717 -0.000001
0.027562 -0.148757 0.081899 0.750633 0.660720 0.000001
0.027533 -0.148724 0.123275 0.750640 0.660711 0.000002
0.005458 -0.183952 0.164010 0.000001 0.000008 1.000000
0.004455 -0.143700 -0.185945 -0.298786 0.000000 0.954320
0.004455 -0.143778 -0.157358 0.732440 0.000000 0.680831
0.009011 -0.143894 -0.076740 0.000003 -0.000000 -1.000000
0.006966 -0.137280 -0.033822 0.878349 0.022894 0.477470
0.006795 -0.137251 0.003940 0.920701 -0.308243 -0.239366
0.006380 -0.137179 0.045949 0.910374 -0.309262 -0.274910
0.006543 -0.137207 0.083442 0.906216 -0.316253 -0.280637
0.006458 -0.137193 0.123794 0.898173 -0.320202 -0.301256
0.005458 -0.144059 0.164010 0.000007 -0.000000 1.000000
0.009008 -0.103895 -0.076740 0.000000 0.000000 -1.000000
0.008446 -0.068982 -0.035672 0.751048 -0.617545 -0.233593
0.007875 -0.070296 0.005704 0.170962 0.985277 0.000719
0.007749 -0.070274 0.046196 0.167992 0.985788 -0.000353
0.008127 -0.069065 0.085723 0.718327 -0.645174 -0.260300
0.004707 -0.069781 0.124527 0.922381 -0.243318 -0.300017
0.005458 -0.104166 0.164010 0.000006 -0.000008 1.000000
0.008054 -0.058849 -0.178508 0.210588 0.000000 -0.977575
0.009331 -0.061350 -0.157537 0.000002 -1.000000 -0.000002
0.008706 -0.061350 -0.118169 0.000000 -1.000000 0.000000
0.009009 -0.063898 -0.076740 -0.000003 0.000000 -1.000000
0.013322 -0.067691 -0.036019 0.394079 -0.918784 -0.023180
0.011614 -0.068157 0.003717 0.474413 -0.876285 -0.084002
0.011363 -0.068223 0.044339 0.463587 -0.882030 -0.084321
0.012593 -0.067902 0.085413 0.408362 -0.911369 -0.051445
0.014279 -0.067258 0.126670 0.300635 -0.953352 0.027185
0.005457 -0.064272 0.164010 0.000007 0.000000 1.000000
0.008054 -0.023975 -0.178508 0.210588 0.000000 -0.977575
0.022260 -0.024366 -0.118840 0.615149 0.000000 0.788411
0.007575 -0.023811 -0.112569 0.161025 -0.011329 0.986885
0.009008 -0.023901 -0.076740 0.000003 0.000000 -1.000000
0.005573 -0.002761 -0.034024 0.108717 0.994072 -0.001015
0.004932 -0.002651 0.004957 0.101567 0.994828 -0.001134
0.005741 -0.002790 0.044840 0.110836 0.993838 0.000977
0.009176 -0.003379 0.085545 0.146308 0.989239 -0.000531
0.008246 -0.003219 0.126196 0.128304 0.991734 -0.000955
0.005458 -0.024380 0.164010 0.000000 -0.000000 1.000000
0.008054 0.016130 -0.178508 0.210588 0.000000 -0.977575
0.022260 0.016045 -0.118840 0.615149 0.000000 0.788411
0.004549 0.014579 -0.112218 0.007240 -0.016127 0.999844
0.008746 0.011460 -0.075771 0.000000 -0.853226 0.521540
0.005945 0.012960 -0.034231 -0.000000 1.000000 0.000000
0.005945 0.012960 0.005792 -0.000000 1.000000 0.000000
0.005945 0.012960 0.045815 -0.000000 1.000000 0.000000
0.005945 0.012960 0.085838 -0.000000 1.000000 0.000000
0.009173 0.011460 0.126258 0.521836 -0.045339 -0.851840
0.005311 0.011460 0.166008 0.000000 -1.000000 0.000001
0.008054 0.056235 -0.178508 0.210588 0.000000 -0.977575
0.022260 0.055266 -0.118840 0.615149 0.000000 0.788411
0.004711 0.055321 -0.112225 0.042702 0.000092 0.999088
0.005671 0.056284 -0.063278 0.078399 0.000000 0.996922
0.004438 0.090516 0.051061 0.983903 -0.176485 -0.028082
0.004450 0.091051 0.140756 0.999994 0.000000 -0.003331
0.004826 0.056190 0.188820 0.000000 0.000000 1.000000
0.008054 0.096340 -0.178508 0.210588 0.000000 -0.977575
0.022260 0.095676 -0.118840 0.615149 0.000000 0.788411
0.004447 0.094795 -0.112214 0.034158 -0.003875 0.999409
0.005671 0.096080 -0.063278 0.078399 0.000000 0.996922
0.004442 0.096254 0.050996 0.999956 -0.004004 0.008426
0.004450 0.095581 0.140756 0.999994 0.000000 -0.003331
0.004826 0.095652 0.188820 0.000000 0.000000 1.000000
0.006667 0.136240 -0.178806 0.153214 0.000000 -0.988193
0.022260 0.136086 -0.118840 0.615150 0.000000 0.788410
0.007234 0.135582 -0.112496 0.153727 -0.013917 0.988015
0.004580 0.134460 -0.074162 0.000003 1.000000 0.000000
0.004452 0.135444 0.050868 0.999990 -0.002509 0.003620
0.004450 0.136351 0.140756 0.999994 0.000000 -0.003331
0.004826 0.135972 0.188820 0.000000 0.000000 1.000000
0.006667 0.176284 -0.178806 0.153214 0.000000 -0.988193
0.005364 0.179400 -0.156862 -0.000015 1.000000 -0.000000
0.005321 0.176104 -0.112251 0.091011 0.022863 0.995587
0.004667 0.190410 -0.074512 -0.000000 -1.000000 0.000000
0.004646 0.190410 -0.033424 -0.000000 -1.000000 0.000000
0.004626 0.190410 0.004459 -0.000005 -1.000000 0.000005
0.009021 0.190410 0.046300 0.000001 -1.000000 0.000002
0.005172 0.190410 0.084860 0.000007 -1.000000 -0.000003
0.004897 0.190410 0.126312 0.000001 -1.000000 0.000002
0.004826 0.176292 0.188820 0.000000 0.000000 1.000000
