ply
format ascii 1.0
comment SurfExtract output
element vertex 800
property float x
property float y
property float z
property float nx
property float ny
property float nz
end_header
0.000025 -0.000002 -0.000000 999.999939 -0.001745 0.001490
0.000022 -0.000002 0.000008 0.000000 0.000000 999.999939
0.000022 -0.000001 0.000057 -0.893805 -697.017273 -717.053711
0.000022 -0.000002 0.000058 -0.885378 -695.330872 -718.689209
0.000022 0.000003 0.000068 -0.002007 643.696289 765.281067
0.000022 -0.000002 0.000072 0.005130 564.012207 825.766418
0.000022 0.000003 -0.000068 -0.010994 643.695496 -765.281677
0.000022 0.000004 -0.000067 -0.007136 716.926453 -697.148682
0.000025 0.000003 -0.000047 991.280884 -109.043098 73.970085
0.000025 0.000003 -0.000046 999.999939 0.001164 -0.004790
0.000025 0.000003 -0.000042 999.999939 0.002464 -0.009465
0.000025 0.000003 -0.000036 999.999939 0.000233 0.003019
0.000025 0.000003 -0.000032 999.999939 0.000182 0.002968
0.000025 0.000003 -0.000023 999.999939 -0.000130 0.001043
0.000025 0.000003 -0.000022 999.999939 -0.000006 -0.000003
0.000025 0.000003 -0.000017 999.999939 -0.000013 -0.002850
0.000025 0.000003 -0.000012 999.999939 -0.002472 -0.000644
0.000025 0.000003 -0.000004 999.999939 -0.000115 0.002732
0.000025 0.000003 -0.000002 999.999939 -0.000355 -0.005401
0.000022 0.000004 0.000008 4.377814 -0.146015 999.990356
0.000022 0.000006 0.000048 -0.854791 -861.571411 -507.635498
0.000022 0.000003 0.000053 -0.151423 -786.758240 -617.261230
0.000022 0.000008 0.000063 0.000000 686.111816 727.495972
0.000022 0.000003 0.000068 -0.003194 643.695740 765.281494
0.000022 0.000008 -0.000063 -2.558355 675.096069 -737.725281
0.000022 0.000009 -0.000062 3.911710 479.341339 -877.619751
0.000026 0.000008 -0.000042 693.583069 -655.873779 297.946503
0.000025 0.000008 -0.000040 850.236450 -486.395355 201.289551
0.000025 0.000008 -0.000037 346.960663 -511.786438 -785.934448
0.000025 0.000008 -0.000031 999.980652 1.671238 5.998446
0.000025 0.000008 -0.000026 870.059387 18.814001 492.587616
0.000025 0.000008 -0.000022 999.999939 0.002718 0.002129
0.000025 0.000008 -0.000016 999.999939 -0.000139 0.000983
0.000025 0.000008 -0.000011 999.999939 -0.001591 0.001502
0.000025 0.000008 -0.000006 999.999939 0.000156 -0.000912
0.000025 0.000008 -0.000002 999.999939 -0.001310 0.003854
0.000022 0.000008 0.000008 0.002213 -0.000762 999.999939
0.000022 0.000011 0.000009 -7.152825 -820.876221 571.061157
0.000022 0.000012 0.000018 0.000000 -999.999939 0.000000
0.000022 0.000012 0.000018 0.000000 -999.999939 0.000000
0.000022 0.000012 0.000024 0.000000 -999.999939 -0.001440
0.000022 0.000012 0.000030 -0.226393 -998.250488 -59.125813
0.000022 0.000011 0.000035 -0.425485 -984.292114 -176.546768
0.000022 0.000009 0.000042 -0.741254 -915.469543 -402.386749
0.000022 0.000008 0.000045 -0.743094 -915.470276 -402.384735
0.000022 0.000008 0.000063 -2.557784 675.092834 737.728394
0.000022 0.000013 -0.000061 -0.522516 84.012291 -996.464539
0.000022 0.000013 0.000061 -0.517212 84.018852 996.463928
0.000022 0.000018 -0.000061 0.000748 -0.015110 -999.999939
0.000022 0.000018 0.000061 -0.005368 0.000000 999.999939
0.000022 0.000023 -0.000061 -0.004386 -0.015110 -999.999939
0.000022 0.000023 0.000061 0.004888 0.007555 999.999939
0.000022 0.000032 -0.000061 0.000000 786.143555 -618.043884
0.000022 0.000032 -0.000054 0.000000 999.999939 0.000000
0.000022 0.000032 -0.000050 0.000000 999.999939 0.000000
0.000022 0.000032 -0.000046 0.000000 999.999939 0.000000
0.000022 0.000032 -0.000042 0.000000 999.999939 0.000000
0.000022 0.000032 -0.000036 0.000000 999.999939 0.000000
0.000022 0.000032 -0.000031 0.000000 999.999939 0.000000
0.000022 0.000032 -0.000026 0.000000 999.999939 0.000000
0.000022 0.000032 -0.000019 0.000000 999.999939 -0.000009
0.000022 0.000032 -0.000014 0.000000 999.999939 0.000000
0.000022 0.000032 -0.000009 0.000000 999.999939 0.000000
0.000022 0.000032 -0.000004 0.000000 999.999939 0.005585
0.000022 0.000032 0.000001 0.000000 999.999939 0.000010
0.000022 0.000032 0.000006 0.000000 999.999939 0.000000
0.000022 0.000032 0.000010 0.000000 999.999939 -0.000010
0.000022 0.000032 0.000015 0.000000 999.999939 0.000000
0.000022 0.000032 0.000018 0.000000 999.999939 0.000000
0.000022 0.000032 0.000028 0.000000 999.999939 0.000000
0.000022 0.000032 0.000028 0.000000 999.999939 0.000000
0.000022 0.000032 0.000033 0.000000 999.999939 -0.006850
0.000022 0.000032 0.000038 0.000000 999.999939 0.000000
0.000022 0.000032 0.000043 0.000000 999.999939 -0.000011
0.000022 0.000032 0.000049 0.000000 999.999939 0.000000
0.000022 0.000032 0.000053 0.000000 999.999939 0.000012
0.000022 0.000028 0.000061 0.004195 0.015111 999.999939
0.000027 -0.000032 -0.000082 -0.001601 -0.016454 -999.999939
0.000027 -0.000032 -0.000077 0.000000 -999.999939 0.000000
0.000027 -0.000030 0.000073 0.000000 -342.019623 -939.692871
0.000027 -0.000032 0.000074 0.000000 -428.408020 -903.585327
0.000027 -0.000032 0.000078 0.000000 -999.999939 0.000000
0.000027 -0.000027 -0.000082 0.013423 0.032919 -999.999939
0.000027 -0.000027 -0.000072 0.000000 -342.016815 939.693848
0.000027 -0.000027 -0.000072 0.000000 -342.009003 939.696655
0.000027 -0.000027 0.000072 0.000000 -342.026886 -939.690125
0.000027 -0.000027 0.000082 -0.001357 -0.016454 999.999939
0.000027 -0.000022 -0.000081 0.000953 342.029724 -939.689087
0.000027 -0.000022 -0.000068 -26.006107 -293.121002 955.721619
0.000027 -0.000018 -0.000067 -23.029533 -332.811554 942.712036
0.000027 -0.000020 0.000068 -0.524339 -272.726044 -962.091492
0.000027 -0.000022 0.000069 0.000000 -261.932129 -965.086304
0.000027 -0.000022 0.000081 0.010375 342.016602 939.693848
0.000027 -0.000017 -0.000079 0.001608 342.034454 -939.687439
0.000027 -0.000017 -0.000067 -0.279830 -369.544250 929.213074
0.000027 -0.000017 0.000067 0.416348 -362.164124 -932.114258
0.000027 -0.000014 0.000078 -0.553378 377.316559 926.084167
0.000027 -0.000017 0.000079 0.006492 342.008759 939.696716
0.000027 -0.000012 -0.000077 -0.013707 388.588928 -921.411194
0.000027 -0.000011 -0.000077 -0.000425 388.601440 -921.405884
0.000027 -0.000012 -0.000064 -0.489047 -468.776611 883.316589
0.000027 -0.000008 -0.000062 -2.425532 -555.021973 831.832092
0.000027 -0.000009 0.000063 -6.021924 -510.095032 -860.096924
0.000027 -0.000012 0.000065 0.563527 -453.322296 -891.346436
0.000027 -0.000012 0.000077 -0.003861 388.585236 921.412842
0.000027 -0.000007 -0.000075 0.009534 478.681366 -877.988770
0.000027 -0.000007 -0.000062 -2.586281 -561.439026 827.514038
0.000027 -0.000007 0.000062 -0.824753 -579.065674 -815.280396
0.000027 -0.000004 0.000073 0.001471 564.013733 825.765320
0.000027 -0.000007 0.000075 0.001373 478.690613 877.983704
0.000027 -0.000002 -0.000072 0.001327 564.017456 -825.762939
0.000027 -0.000002 -0.000072 -0.002648 564.013977 -825.765198
0.000027 -0.000002 -0.000057 265.115753 -683.936401 679.665161
0.000027 -0.000002 -0.000057 216.633316 -703.244507 677.138794
0.000027 -0.000002 0.000058 -0.893428 -697.009155 -717.061646
0.000027 -0.000002 0.000058 -0.892610 -696.230042 -717.818298
0.000027 0.000003 0.000068 -0.002832 643.697266 765.280151
0.000027 -0.000002 0.000072 0.006260 564.017456 825.762878
0.000027 0.000003 -0.000068 -0.001103 643.685181 -765.290466
0.000027 0.000004 -0.000067 0.004278 716.923035 -697.152344
0.000027 0.000003 -0.000052 271.471863 -752.614258 599.895447
0.000027 0.000003 -0.000052 423.435760 -701.708862 572.980652
0.000027 0.000006 -0.000046 464.032990 -753.138733 466.321014
0.000027 0.000006 0.000048 -0.843633 -861.571106 -507.636292
0.000027 0.000003 0.000053 -0.150196 -786.756287 -617.263794
0.000027 0.000008 0.000063 -1.691027 675.835022 737.050903
0.000027 0.000003 0.000068 -0.007546 643.697632 765.279968
0.000027 0.000008 -0.000063 -1.820908 654.994324 -755.631531
0.000027 0.000009 -0.000062 -0.367636 445.047424 -895.506836
0.000027 0.000008 -0.000043 454.056152 -813.186035 364.089874
0.000027 0.000008 -0.000042 464.025360 -804.738464 370.238220
0.000027 0.000010 -0.000037 464.032196 -844.132874 268.540039
0.000027 0.000011 -0.000032 464.024689 -870.739685 162.767944
0.000027 0.000012 -0.000026 370.705597 -926.383118 66.268570
0.000027 0.000012 -0.000022 391.080750 -920.356079 -0.642337
0.000027 0.000012 -0.000017 324.688599 -945.623901 -19.304476
0.000027 0.000012 -0.000012 382.380859 -923.976074 -7.290442
0.000027 0.000012 -0.000007 303.972565 -952.578796 13.935888
0.000027 0.000012 -0.000002 324.261322 -945.932495 8.136230
0.000027 0.000012 0.000003 302.169464 -953.229858 6.810153
0.000027 0.000012 0.000009 -0.001519 -999.999939 -0.000091
0.000027 0.000012 0.000013 0.000000 -999.999939 -0.001368
0.000027 0.000012 0.000018 0.000000 -999.999939 0.000000
0.000027 0.000012 0.000026 0.000000 -998.374512 -56.994259
0.000027 0.000011 0.000033 -0.426624 -984.291687 -176.549301
0.000027 0.000010 0.000038 -0.602155 -956.567810 -291.508972
0.000027 0.000008 0.000043 -0.739135 -915.470947 -402.383179
0.000027 0.000008 0.000045 -0.737366 -915.470154 -402.385223
0.000027 0.000008 0.000063 -1.824095 654.986450 755.638428
0.000027 0.000013 -0.000061 1.164531 97.570465 -995.227844
0.000027 0.000013 0.000061 1.164144 97.570274 995.227844
0.000027 0.000018 -0.000061 0.005220 0.000000 -999.999939
0.000027 0.000018 0.000061 0.000010 0.000000 999.999939
0.000027 0.000023 -0.000061 -0.004303 -0.014916 -999.999939
0.000027 0.000023 0.000061 -0.005231 -0.000000 999.999939
0.000027 0.000028 -0.000061 -0.005220 0.000000 -999.999939
0.000027 0.000032 -0.000056 0.000000 999.999939 0.004345
0.000027 0.000032 -0.000052 0.000000 999.999939 0.000000
0.000027 0.000032 -0.000047 0.000000 999.999939 0.000000
0.000027 0.000032 -0.000042 0.000000 999.999939 0.000000
0.000027 0.000032 -0.000037 0.000000 999.999939 0.000000
0.000027 0.000032 -0.000032 0.000000 999.999939 0.000000
0.000027 0.000032 -0.000027 0.000000 999.999939 0.000000
0.000027 0.000032 -0.000022 0.000000 999.999939 -0.005113
0.000027 0.000032 -0.000016 0.000000 999.999939 0.000000
0.000027 0.000032 -0.000012 0.000000 999.999939 0.000000
0.000027 0.000032 -0.000007 0.000000 999.999939 0.000000
0.000027 0.000032 -0.000002 0.000000 999.999939 0.000000
0.000027 0.000032 0.000003 0.000000 999.999939 0.000010
0.000027 0.000032 0.000008 0.000000 999.999939 0.000000
0.000027 0.000032 0.000013 0.000000 999.999939 0.006129
0.000027 0.000032 0.000018 0.000000 999.999939 0.000000
0.000027 0.000032 0.000023 0.000000 999.999939 0.000000
0.000027 0.000032 0.000028 0.000000 999.999939 0.000000
0.000027 0.000032 0.000033 0.000000 999.999939 -0.006850
0.000027 0.000032 0.000038 0.000000 999.999939 0.000000
0.000027 0.000032 0.000043 0.000000 999.999939 -0.000011
0.000027 0.000032 0.000049 0.000000 999.999939 0.000000
0.000027 0.000032 0.000053 0.000000 999.999939 0.000012
0.000027 0.000028 0.000061 -0.005231 -0.000000 999.999939
0.000032 -0.000032 -0.000082 -0.000023 0.000000 -999.999939
0.000032 -0.000032 -0.000077 0.000000 -999.999939 0.000000
0.000032 -0.000031 0.000073 0.000000 -342.024750 -939.690979
0.000032 -0.000032 0.000074 0.000000 -428.408051 -903.585327
0.000032 -0.000032 0.000079 0.000000 -999.999939 0.000000
0.000032 -0.000027 -0.000082 -0.010386 -0.000008 -999.999939
0.000032 -0.000027 -0.000072 0.000000 -342.016815 939.693848
0.000032 -0.000027 -0.000072 0.000000 -342.008972 939.696594
0.000032 -0.000027 0.000072 0.000000 -342.026886 -939.690125
0.000032 -0.000027 0.000082 0.007757 -0.032424 999.999939
0.000032 -0.000022 -0.000081 -0.004629 342.020569 -939.692383
0.000032 -0.000022 -0.000068 0.000000 -265.883575 964.005188
0.000032 -0.000018 -0.000067 -0.287120 -369.540222 929.214661
0.000032 -0.000020 0.000068 -0.544930 -272.713287 -962.095154
0.000032 -0.000022 0.000069 0.000000 -265.521790 -964.104858
0.000032 -0.000022 0.000081 -0.003486 342.024017 939.691223
0.000032 -0.000017 -0.000079 -0.015457 342.030518 -939.688843
0.000032 -0.000017 -0.000067 -0.286880 -369.533783 929.217224
0.000032 -0.000017 0.000067 0.118919 -358.243317 -933.628235
0.000032 -0.000014 0.000078 0.003293 388.597992 921.407471
0.000032 -0.000017 0.000079 0.000643 342.021088 939.692322
0.000032 -0.000012 -0.000077 -0.006537 388.584930 -921.412903
0.000032 -0.000011 -0.000077 -0.015205 388.586609 -921.412170
0.000032 -0.000012 -0.000064 -0.470444 -468.761932 883.324463
0.000032 -0.000008 -0.000062 -2.689289 -562.416077 826.850037
0.000032 -0.000008 0.000063 0.470151 -536.831787 -843.689209
0.000032 -0.000011 0.000065 -0.839659 -499.856018 -866.108154
0.000032 -0.000012 0.000077 0.002456 388.578735 921.415588
0.000032 -0.000007 -0.000075 0.004532 478.689117 -877.984436
0.000032 -0.000007 -0.000062 -2.694584 -562.756287 826.618530
0.000032 -0.000007 0.000062 -0.834185 -582.123108 -813.100159
0.000032 -0.000004 0.000073 -0.012676 564.021301 825.760132
0.000032 -0.000007 0.000075 0.004508 478.689117 877.984497
0.000032 -0.000002 -0.000072 0.006688 564.005981 -825.770630
0.000032 -0.000002 -0.000072 0.006643 563.996033 -825.777527
0.000032 -0.000002 -0.000058 -0.654173 -672.001831 740.549072
0.000032 -0.000001 -0.000057 0.290847 -697.008118 717.063171
0.000032 -0.000002 0.000058 -0.888164 -697.011353 -717.059448
0.000033 -0.000002 0.000058 -0.886981 -697.015991 -717.055054
0.000032 0.000003 0.000068 0.005404 643.690918 765.285522
0.000032 -0.000002 0.000072 -0.002540 564.011169 825.767090
0.000032 0.000003 -0.000068 0.001262 643.682922 -765.292358
0.000032 0.000004 -0.000067 0.001619 716.921997 -697.153259
0.000032 0.000003 -0.000052 1.541213 -800.604187 599.191467
0.000032 0.000003 -0.000051 5.065316 -814.498718 580.143188
0.000032 0.000006 -0.000047 0.991404 -874.502136 485.020569
0.000032 0.000006 0.000048 -0.848623 -861.568359 -507.640808
0.000032 0.000003 0.000053 -0.143166 -786.757874 -617.261597
0.000032 0.000008 0.000063 -0.970681 664.768677 747.048523
0.000032 0.000003 0.000068 -0.000762 643.697083 765.280273
0.000032 0.000008 -0.000063 -1.645511 650.193909 -759.766479
0.000032 0.000009 -0.000062 -2.208099 430.378418 -902.645691
0.000032 0.000008 -0.000044 0.816309 -902.828003 430.000977
0.000032 0.000009 -0.000041 0.804233 -923.436340 383.750641
0.000032 0.000010 -0.000037 661.921265 -713.647095 229.277008
0.000032 0.000012 -0.000032 0.411327 -985.787964 167.993332
0.000032 0.000012 -0.000027 661.325500 -750.015869 -11.166851
0.000032 0.000012 -0.000021 0.000000 -999.999939 -0.000002
0.000032 0.000012 -0.000017 0.000000 -999.999939 0.000002
0.000032 0.000012 -0.000012 0.000000 -999.999939 -0.000002
0.000032 0.000012 -0.000007 0.000000 -999.999939 0.000000
0.000032 0.000012 -0.000002 0.000000 -999.999939 0.000000
0.000032 0.000012 0.000004 -0.001477 -999.999939 0.001364
0.000032 0.000012 0.000009 0.001522 -999.999939 -0.001236
0.000032 0.000012 0.000013 0.001536 -999.999939 -0.001257
0.000032 0.000012 0.000018 0.001553 -999.999939 -0.001287
0.000032 0.000012 0.000026 -0.227667 -998.272766 -58.747643
0.000032 0.000011 0.000033 662.683838 -731.216675 -161.778214
0.000032 0.000010 0.000038 -0.599048 -956.568726 -291.506287
0.000032 0.000008 0.000043 -0.739591 -915.468567 -402.388916
0.000032 0.000008 0.000044 -0.740500 -915.468750 -402.388367
0.000032 0.000008 0.000063 -1.649927 650.199829 759.761475
0.000032 0.000013 -0.000061 -1.169940 103.009148 -994.679626
0.000032 0.000013 0.000061 -1.185756 103.025192 994.677979
0.000032 0.000018 -0.000061 0.005782 -0.014706 -999.999939
0.000032 0.000018 0.000061 -0.004731 -0.007353 999.999939
0.000032 0.000023 -0.000061 -0.010612 0.007353 -999.999939
0.000032 0.000023 0.000061 -0.000000 0.000000 999.999939
0.000032 0.000028 -0.000061 0.005075 0.000000 -999.999939
0.000032 0.000032 -0.000056 0.000000 999.999939 0.004345
0.000032 0.000032 -0.000052 0.000000 999.999939 0.000000
0.000032 0.000032 -0.000046 0.000000 999.999939 0.000000
0.000032 0.000032 -0.000042 0.000000 999.999939 0.000000
0.000032 0.000032 -0.000037 0.000000 999.999939 0.000000
0.000032 0.000032 -0.000032 0.000000 999.999939 0.000000
0.000032 0.000032 -0.000026 0.000000 999.999939 0.000000
0.000032 0.000032 -0.000022 0.000000 999.999939 -0.005113
0.000032 0.000032 -0.000016 0.000000 999.999939 -0.006212
0.000032 0.000032 -0.000012 0.000000 999.999939 0.000000
0.000032 0.000032 -0.000007 0.000000 999.999939 0.000000
0.000032 0.000032 -0.000002 0.000000 999.999939 0.000000
0.000032 0.000032 0.000003 0.000000 999.999939 0.000010
0.000032 0.000032 0.000008 0.000000 999.999939 0.000000
0.000032 0.000032 0.000014 0.000000 999.999939 -0.006150
0.000032 0.000032 0.000018 0.000000 999.999939 0.000000
0.000032 0.000032 0.000023 0.000000 999.999939 0.000000
0.000032 0.000032 0.000029 0.000000 999.999939 -0.006677
0.000032 0.000032 0.000034 0.000000 999.999939 -0.006894
0.000032 0.000032 0.000038 0.000000 999.999939 0.000000
0.000032 0.000032 0.000043 0.000000 999.999939 -0.000011
0.000032 0.000032 0.000049 0.000000 999.999939 0.000000
0.000032 0.000032 0.000053 0.000000 999.999939 0.000012
0.000032 0.000028 0.000061 -0.005075 -0.000000 999.999939
0.000037 -0.000032 -0.000081 0.000000 -999.999939 0.000000
0.000037 -0.000032 -0.000077 0.000000 -999.999939 0.000000
0.000037 -0.000030 0.000073 0.000000 -342.019592 -939.692810
0.000037 -0.000032 0.000074 0.000000 -837.960876 -545.730286
0.000037 -0.000032 0.000079 0.000000 -999.999939 0.000000
0.000037 -0.000025 -0.000082 3.451186 103.908493 -994.580872
0.000037 -0.000027 -0.000072 0.000000 -342.016815 939.693848
0.000037 -0.000027 -0.000072 0.000000 -342.008972 939.696594
0.000037 -0.000027 0.000072 0.000000 -342.026886 -939.690125
0.000037 -0.000025 0.000082 3.440238 103.894035 994.582275
0.000037 -0.000022 -0.000081 -0.003919 342.004181 -939.698425
0.000037 -0.000022 -0.000068 0.000000 -265.883545 964.005127
0.000037 -0.000018 -0.000067 20.353016 -346.557495 937.807800
0.000037 -0.000020 0.000068 -0.522797 -272.721619 -962.092773
0.000037 -0.000022 0.000069 -0.534100 -269.032776 -963.130920
0.000037 -0.000022 0.000081 0.006518 342.013702 939.694885
0.000037 -0.000017 -0.000079 -0.008158 342.010223 -939.696228
0.000037 -0.000017 -0.000066 -0.278072 -369.532318 929.217834
0.000037 -0.000017 0.000067 -1.006830 -366.373993 -930.467163
0.000037 -0.000014 0.000078 -0.275532 382.940826 923.772827
0.000037 -0.000017 0.000079 0.002097 342.004425 939.698303
0.000037 -0.000012 -0.000077 -0.006865 388.584229 -921.413269
0.000037 -0.000011 -0.000077 0.005696 388.600677 -921.406311
0.000037 -0.000012 -0.000064 -0.482980 -468.776398 883.316711
0.000037 -0.000008 -0.000062 -2.694560 -562.405701 826.856934
0.000037 -0.000008 0.000063 -0.837715 -499.846619 -866.113464
0.000037 -0.000012 0.000065 0.565827 -471.216858 -882.017273
0.000037 -0.000012 0.000077 0.002343 388.590515 921.410522
0.000037 -0.000007 -0.000075 0.001172 478.684113 -877.987183
0.000037 -0.000007 -0.000061 -2.703156 -562.409668 826.854248
0.000037 -0.000007 0.000062 -0.939384 -602.819763 -797.876770
0.000037 -0.000003 0.000072 0.000732 564.004089 825.771912
0.000037 -0.000006 0.000074 0.008838 478.694061 877.981812
0.000037 -0.000002 -0.000072 -0.001630 564.009827 -825.768066
0.000037 -0.000002 -0.000072 -0.020892 564.010986 -825.767212
0.000037 -0.000002 -0.000058 -0.647322 -664.886353 746.944214
0.000037 -0.000001 -0.000057 0.297898 -695.422241 718.601257
0.000037 -0.000002 0.000058 -0.896299 -697.006470 -717.064270
0.000039 -0.000002 0.000058 -0.895232 -697.015320 -717.055664
0.000037 0.000002 0.000068 0.004738 643.691162 765.285339
0.000037 -0.000002 0.000072 -0.003058 564.007751 825.769531
0.000037 0.000003 -0.000068 -0.001179 643.689392 -765.286743
0.000037 0.000005 -0.000066 0.002289 716.917297 -697.158264
0.000037 0.000003 -0.000052 0.140801 -789.934265 613.191467
0.000037 0.000004 -0.000050 5.073197 -814.498047 580.144043
0.000037 0.000006 -0.000047 -0.797816 -876.668884 481.093445
0.000037 0.000007 0.000047 -0.848663 -861.568848 -507.639984
0.000037 0.000003 0.000052 -0.154414 -793.944519 -607.990234
0.000038 0.000008 0.000063 -1.646620 650.186890 759.772583
0.000037 0.000003 0.000068 0.006199 643.689026 765.287231
0.000037 0.000008 -0.000063 -1.640735 650.208496 -759.754028
0.000037 0.000009 -0.000062 -2.518208 441.177917 -897.416077
0.000037 0.000008 -0.000044 -0.786894 -897.763428 440.476959
0.000037 0.000009 -0.000041 -0.598094 -924.883057 380.251007
0.000037 0.000010 -0.000037 -0.406023 -961.435730 275.029175
0.000037 0.000012 -0.000032 -0.203032 -986.059509 166.392975
0.000037 0.000012 -0.000027 0.000000 -998.447754 55.694923
0.000037 0.000012 -0.000021 0.000000 -999.999939 -0.000002
0.000037 0.000012 -0.000017 0.000000 -999.999939 0.000002
0.000037 0.000012 -0.000011 -0.001528 -999.999939 0.000124
0.000037 0.000012 -0.000006 0.000000 -999.999939 0.000000
0.000037 0.000012 -0.000001 0.001486 -999.999939 0.000117
0.000037 0.000012 0.000003 0.000000 -999.999939 -0.001308
0.000037 0.000012 0.000010 -0.000000 -999.999939 0.002699
0.000037 0.000012 0.000014 0.000000 -999.999939 0.002743
0.000037 0.000012 0.000018 -0.001553 -999.999939 -0.000130
0.000037 0.000012 0.000025 0.000000 -999.912659 -13.209244
0.000037 0.000012 0.000032 -0.430981 -984.291382 -176.551300
0.000037 0.000010 0.000038 -0.599789 -956.567322 -291.510468
0.000037 0.000008 0.000043 -0.739177 -915.470581 -402.384247
0.000037 0.000008 0.000043 -0.736419 -915.470886 -402.383362
0.000037 0.000008 0.000063 -1.648631 650.191772 759.768250
0.000037 0.000013 -0.000061 -1.282650 130.693710 -991.421936
0.000037 0.000013 0.000061 -1.282408 130.686249 991.422974
0.000037 0.000018 -0.000061 -0.015315 -0.000000 -999.999939
0.000037 0.000021 0.000061 -0.015328 -0.000000 999.999939
0.000037 0.000023 -0.000061 0.000000 0.000000 -999.999939
0.000037 0.000024 0.000061 -0.015328 -0.000000 999.999939
0.000037 0.000028 -0.000061 0.000000 0.000000 -999.999939
0.000037 0.000032 -0.000056 0.000000 999.999939 -0.007831
0.000037 0.000032 -0.000050 0.000000 999.999939 0.000000
0.000037 0.000032 -0.000047 0.000000 999.999939 0.000000
0.000037 0.000032 -0.000040 0.000000 999.999939 -0.004689
0.000037 0.000032 -0.000036 0.000000 999.999939 0.000011
0.000037 0.000032 -0.000030 0.000000 999.999939 0.000000
0.000037 0.000032 -0.000027 0.000000 999.999939 0.000000
0.000037 0.000032 -0.000021 0.000000 999.999939 0.006400
0.000037 0.000032 -0.000016 0.000000 999.999939 0.000000
0.000037 0.000032 -0.000012 0.000000 999.999939 0.000000
0.000037 0.000032 -0.000005 0.000000 999.999939 -0.005575
0.000037 0.000032 -0.000002 0.000000 999.999939 0.000000
0.000037 0.000032 0.000004 0.000000 999.999939 -0.000010
0.000037 0.000032 0.000009 0.000000 999.999939 0.005996
0.000037 0.000032 0.000015 0.000000 999.999939 0.000000
0.000037 0.000032 0.000020 0.000000 999.999939 0.000000
0.000037 0.000032 0.000025 0.000000 999.999939 0.000000
0.000037 0.000032 0.000030 0.000000 999.999939 0.000011
0.000037 0.000032 0.000034 0.000000 999.999939 -0.006894
0.000037 0.000032 0.000039 0.000000 999.999939 0.000000
0.000037 0.000032 0.000043 0.000000 999.999939 -0.000011
0.000037 0.000032 0.000050 0.000000 999.999939 0.000000
0.000037 0.000032 0.000054 0.000000 999.999939 -0.007750
0.000037 0.000031 0.000061 0.015328 0.000000 999.999939
0.000042 -0.000032 -0.000079 0.000000 -999.999939 -0.009040
0.000042 -0.000032 -0.000074 0.000000 -999.999939 0.000000
0.000043 -0.000032 -0.000048 -789.426575 -445.850586 -421.927704
0.000043 -0.000032 -0.000047 -664.438049 -742.471680 85.191978
0.000043 -0.000032 -0.000042 -750.497009 -638.706848 169.728592
0.000043 -0.000032 -0.000037 -626.725830 -776.566650 -64.489456
0.000043 -0.000032 -0.000014 -598.254944 -130.458176 -790.614746
0.000043 -0.000032 -0.000012 -674.336487 -738.416870 3.234200
0.000043 -0.000032 -0.000006 -904.472473 -362.973969 224.007645
0.000043 -0.000032 -0.000002 -693.640198 -715.605408 82.293152
0.000043 -0.000032 0.000003 -793.664185 -577.007996 192.766586
0.000043 -0.000032 0.000008 -969.970032 -206.955154 127.779152
0.000043 -0.000032 0.000040 -666.113281 -315.045410 -676.046936
0.000043 -0.000032 0.000048 -608.479370 -789.540161 79.869141
0.000043 -0.000032 0.000048 -661.661682 -744.936890 -85.279587
0.000042 -0.000029 0.000072 0.000000 -342.022400 -939.691711
0.000042 -0.000032 0.000074 0.000000 -342.016266 -939.693970
0.000042 -0.000032 0.000078 0.000000 -999.999939 0.000000
0.000042 -0.000025 -0.000082 2.482883 108.652840 -994.076599
0.000042 -0.000027 -0.000072 0.000000 -342.016815 939.693848
0.000042 -0.000026 -0.000071 0.000000 -342.019958 939.692627
0.000043 -0.000027 -0.000048 -965.916382 -4.635573 -258.812866
0.000043 -0.000027 -0.000047 -999.999939 0.005922 0.005678
0.000043 -0.000027 -0.000041 -999.999939 0.000000 0.000000
0.000043 -0.000027 -0.000037 -999.999939 0.000008 0.000000
0.000043 -0.000024 -0.000031 -810.700317 -498.128815 307.624237
0.000043 -0.000025 -0.000017 -397.166626 -723.950500 -564.051575
0.000043 -0.000027 -0.000015 -667.122375 -344.356110 -660.580383
0.000043 -0.000027 -0.000012 -999.999939 -0.005515 -0.005677
0.000043 -0.000027 -0.000007 -999.999939 0.002544 0.001572
0.000043 -0.000027 -0.000002 -999.999939 0.004069 -0.005673
0.000043 -0.000027 0.000003 -999.999939 0.005320 -0.004796
0.000043 -0.000027 0.000008 -999.999939 -0.008333 0.010809
0.000043 -0.000025 0.000013 -592.662170 -349.224274 725.805603
0.000043 -0.000026 0.000038 -661.004517 -322.237335 -677.669556
0.000043 -0.000027 0.000039 -361.514862 -477.102753 -801.049255
0.000043 -0.000027 0.000044 -999.999939 -0.001726 -0.008109
0.000043 -0.000027 0.000048 -999.999939 0.000000 0.000000
0.000042 -0.000026 0.000071 0.000000 -342.019989 -939.692627
0.000042 -0.000025 0.000082 2.471256 108.623680 994.079773
0.000042 -0.000021 -0.000081 0.019926 342.009460 -939.696472
0.000042 -0.000022 -0.000068 0.000000 -265.877472 964.006775
0.000042 -0.000018 -0.000067 -0.279126 -369.537811 929.215637
0.000043 -0.000022 -0.000047 -979.201233 -1.704499 -202.883774
0.000043 -0.000022 -0.000046 -999.999939 -0.005406 0.007617
0.000043 -0.000022 -0.000041 -999.999939 0.003181 -0.006949
0.000043 -0.000022 -0.000036 -999.999939 0.000005 -0.000003
0.000043 -0.000022 -0.000031 -999.998657 -1.428637 0.887035
0.000043 -0.000022 -0.000022 -222.331619 -774.854980 -591.750183
0.000043 -0.000022 -0.000022 -762.919312 -581.263794 -282.995636
0.000043 -0.000022 -0.000017 -999.999939 -0.002974 -0.005829
0.000043 -0.000022 -0.000012 -999.999939 -0.004274 -0.007440
0.000043 -0.000022 -0.000006 -999.999939 -0.000014 0.000008
0.000043 -0.000022 -0.000002 -999.999939 0.009033 0.004509
0.000043 -0.000022 0.000004 -999.999939 -0.000393 -0.005348
0.000043 -0.000022 0.000008 -999.999939 -0.004008 0.005347
0.000043 -0.000022 0.000014 -999.999939 -0.002213 -0.001370
0.000043 -0.000020 0.000018 -394.744415 -740.780884 543.525818
0.000043 -0.000018 0.000023 -815.091492 -498.297943 295.507660
0.000043 -0.000020 0.000033 -408.845673 -706.242310 -577.985291
0.000043 -0.000022 0.000036 -999.250427 -4.549605 -38.442894
0.000043 -0.000022 0.000039 -999.999939 0.004905 -0.004162
0.000043 -0.000022 0.000044 -999.999939 0.001626 0.007963
0.000043 -0.000022 0.000048 -999.999939 0.000013 -0.000006
0.000042 -0.000020 0.000068 -0.534146 -272.717377 -962.093933
0.000042 -0.000022 0.000069 -0.535921 -272.625580 -962.119995
0.000042 -0.000020 0.000080 -0.000674 342.023743 939.691223
0.000042 -0.000016 -0.000079 0.019144 342.002686 -939.698975
0.000042 -0.000016 -0.000066 -0.276155 -369.546661 929.212158
0.000043 -0.000017 -0.000047 -992.065002 3.802679 -125.668549
0.000043 -0.000017 -0.000047 -999.923035 -2.949217 -12.045221
0.000043 -0.000017 -0.000041 -999.999939 -0.002703 -0.006743
0.000043 -0.000017 -0.000037 -999.999939 -0.001368 -0.000846
0.000043 -0.000017 -0.000032 -999.999939 0.000360 0.005558
0.000043 -0.000017 -0.000026 -999.999939 -0.004026 -0.004868
0.000043 -0.000017 -0.000020 -999.999939 0.001255 0.000776
0.000043 -0.000017 -0.000014 -999.999939 0.000910 -0.006744
0.000043 -0.000017 -0.000011 -999.999939 0.001383 0.000000
0.000043 -0.000017 -0.000007 -999.999939 0.000000 0.000000
0.000043 -0.000017 -0.000001 -999.999939 -0.000013 -0.006744
0.000043 -0.000017 0.000003 -999.999939 -0.001487 0.006744
0.000043 -0.000017 0.000008 -999.999939 0.000000 0.000000
0.000043 -0.000017 0.000013 -999.999939 -0.002357 -0.006627
0.000043 -0.000017 0.000020 -999.999939 0.004721 0.005322
0.000043 -0.000017 0.000023 -999.999939 0.002983 -0.005563
0.000043 -0.000017 0.000032 -999.999939 -0.001031 0.006742
0.000043 -0.000017 0.000034 -999.999939 -0.003210 -0.006568
0.000043 -0.000017 0.000042 -999.999939 -0.004165 0.004522
0.000043 -0.000017 0.000046 -999.999939 0.008350 -0.008926
0.000043 -0.000017 0.000048 -999.999939 0.005149 -0.000000
0.000042 -0.000016 0.000067 -0.821541 -389.254669 -921.129761
0.000042 -0.000014 0.000078 0.006355 388.589691 921.410889
0.000042 -0.000016 0.000079 -0.006214 342.012482 939.695374
0.000042 -0.000012 -0.000077 -0.002975 388.592468 -921.409668
0.000042 -0.000011 -0.000077 -0.003621 388.586792 -921.412048
0.000042 -0.000009 -0.000063 -1.226916 -546.764038 837.285828
0.000042 -0.000008 -0.000062 -2.689825 -562.408264 826.855347
0.000043 -0.000012 -0.000048 378.045197 -693.628479 -613.156555
0.000043 -0.000012 -0.000046 -999.999939 -0.000001 -0.000011
0.000043 -0.000012 -0.000042 -999.999939 0.000005 -0.000003
0.000043 -0.000012 -0.000037 -999.999939 -0.000900 -0.003917
0.000043 -0.000012 -0.000032 -999.999939 -0.000829 -0.003755
0.000043 -0.000012 -0.000027 -999.999939 -0.000008 -0.000000
0.000043 -0.000012 -0.000022 -999.999939 0.003309 -0.007889
0.000043 -0.000012 -0.000016 -999.999939 0.000000 0.000000
0.000043 -0.000012 -0.000012 -999.999939 0.001028 -0.000635
0.000043 -0.000012 -0.000007 -999.999939 0.000463 -0.002851
0.000043 -0.000012 -0.000001 -999.999939 -0.008454 -0.004453
0.000043 -0.000012 0.000003 -999.999939 0.003623 -0.005377
0.000043 -0.000012 0.000008 -999.999939 0.006009 -0.013691
0.000043 -0.000012 0.000013 -999.999939 -0.003426 -0.005809
0.000043 -0.000012 0.000018 -999.999939 -0.005488 -0.012674
0.000043 -0.000012 0.000023 -999.999939 0.001253 -0.000777
0.000043 -0.000012 0.000028 -999.999939 -0.001916 -0.007055
0.000043 -0.000012 0.000033 -999.999939 0.001303 -0.000805
0.000043 -0.000012 0.000038 -999.999939 -0.004292 -0.005796
0.000043 -0.000012 0.000043 -999.999939 -0.000477 0.005504
0.000043 -0.000012 0.000048 -999.999939 -0.005048 0.000000
0.000042 -0.000009 0.000063 -0.848162 -499.850891 -866.110962
0.000042 -0.000010 0.000064 -0.850970 -499.848572 -866.112366
0.000042 -0.000011 0.000077 -0.004081 388.586365 921.412292
0.000042 -0.000006 -0.000074 -0.006960 478.685791 -877.986267
0.000042 -0.000005 -0.000060 -1.739408 -641.797913 766.871826
0.000043 -0.000007 -0.000048 -974.691956 -14.624629 -223.073105
0.000043 -0.000007 -0.000047 -997.474976 60.423279 -37.318073
0.000043 -0.000007 -0.000042 -999.999939 0.001225 0.006434
0.000043 -0.000007 -0.000037 -999.999939 0.002526 0.001561
0.000043 -0.000007 -0.000032 -999.999939 0.001208 0.000746
0.000043 -0.000007 -0.000027 -999.999939 -0.004260 0.005399
0.000043 -0.000007 -0.000022 -999.999939 -0.000632 -0.006434
0.000043 -0.000007 -0.000017 -999.999939 0.000000 0.000000
0.000043 -0.000007 -0.000012 -999.999939 -0.000340 -0.006434
0.000043 -0.000007 -0.000007 -999.999939 0.000193 0.006434
0.000043 -0.000007 -0.000001 -999.999939 0.001204 -0.006434
0.000043 -0.000007 0.000003 -999.999939 0.000100 -0.006434
0.000043 -0.000007 0.000008 -999.999939 0.002502 -0.000002
0.000043 -0.000007 0.000013 -999.999939 0.000000 0.000000
0.000043 -0.000007 0.000018 -999.999939 -0.004367 -0.005176
0.000043 -0.000007 0.000023 -999.999939 0.004956 -0.000000
0.000043 -0.000007 0.000029 -999.999939 0.009903 -0.000000
0.000043 -0.000007 0.000033 -999.999939 0.004956 -0.000000
0.000043 -0.000007 0.000038 -999.999939 0.000000 0.000000
0.000043 -0.000007 0.000044 -999.999939 -0.002744 -0.006700
0.000043 -0.000007 0.000048 -999.999939 -0.002655 -0.006859
0.000042 -0.000005 0.000061 -0.945335 -602.809998 -797.884277
0.000042 -0.000003 0.000072 0.004312 564.012451 825.766235
0.000042 -0.000006 0.000074 -0.007243 478.686310 877.985901
0.000046 -0.000002 -0.000072 0.000293 563.992798 -825.779724
0.000042 -0.000002 -0.000072 0.009584 564.020569 -825.760742
0.000042 -0.000002 -0.000058 -3.057801 -655.457581 755.225769
0.000042 -0.000001 -0.000056 -1.973289 -728.467590 685.077332
0.000043 -0.000002 -0.000047 -976.073425 2.901429 -217.421448
0.000043 -0.000002 -0.000044 -999.999939 -0.002614 0.006625
0.000043 -0.000002 -0.000040 -999.999939 -0.003938 0.005702
0.000043 -0.000002 -0.000035 -999.999939 0.001725 -0.001066
0.000043 -0.000002 -0.000029 -999.999939 -0.000015 -0.000009
0.000043 -0.000002 -0.000027 -999.999939 -0.000015 -0.000009
0.000043 -0.000002 -0.000021 -999.999939 -0.003562 -0.004842
0.000043 -0.000002 -0.000016 -999.999939 -0.000950 0.007081
0.000043 -0.000002 -0.000010 -999.999939 0.005331 -0.004269
0.000043 -0.000002 -0.000004 -999.999939 0.003282 -0.005431
0.000043 -0.000002 0.000001 -999.999939 -0.003338 -0.005345
0.000043 -0.000002 0.000004 -999.999939 -0.002240 -0.006075
0.000043 -0.000002 0.000008 -999.999939 -0.000985 -0.000609
0.000043 -0.000002 0.000017 -954.156921 -0.357244 -299.306366
0.000043 -0.000002 0.000018 -999.999939 -0.001982 -0.006494
0.000043 -0.000002 0.000024 -999.999939 -0.001865 -0.006671
0.000043 -0.000002 0.000029 -999.999939 0.001194 -0.000736
0.000043 -0.000002 0.000034 -999.999939 -0.001604 -0.007040
0.000043 -0.000002 0.000040 -999.999939 0.000000 0.000000
0.000043 -0.000002 0.000044 -999.999939 -0.000015 0.000010
0.000042 0.000003 0.000053 -323.170532 -838.093506 -439.499817
0.000042 -0.000000 0.000056 -0.883556 -697.015991 -717.055054
0.000042 -0.000002 0.000058 -0.897614 -697.007813 -717.062927
0.000042 0.000003 0.000068 0.000000 643.694214 765.282715
0.000042 -0.000001 0.000071 -0.000632 564.018494 825.762024
0.000042 0.000003 -0.000068 -0.001061 643.684570 -765.290833
0.000042 0.000004 -0.000067 0.003605 716.924805 -697.150452
0.000042 0.000003 -0.000052 0.137496 -787.371277 616.479004
0.000042 0.000004 -0.000050 -280.784454 -843.258911 458.338715
0.000042 0.000006 -0.000047 -329.517944 -832.027405 446.260468
0.000043 0.000007 -0.000042 -944.560181 -314.236603 95.191086
0.000043 0.000003 -0.000035 -999.999939 -0.001160 -0.000718
0.000043 0.000003 -0.000031 -999.999939 -0.000864 0.000533
0.000043 0.000003 -0.000027 -999.999939 0.002607 0.005225
0.000043 0.000003 -0.000021 -999.999939 0.000342 -0.002509
0.000043 0.000003 -0.000017 -999.999939 -0.000000 -0.000000
0.000043 0.000003 -0.000011 -999.999939 0.005012 0.002447
0.000043 0.000003 -0.000007 -999.999939 -0.003290 -0.005114
0.000043 0.000003 -0.000001 -514.700500 -66.923241 854.754028
0.000043 0.000003 0.000003 -999.999939 -0.000014 0.000009
0.000043 0.000003 0.000008 -999.999939 -0.005777 0.000247
0.000043 0.000003 0.000017 -820.847534 2.267903 -571.142700
0.000043 0.000003 0.000018 -999.999939 -0.004018 -0.005080
0.000043 0.000003 0.000024 -999.999939 0.001783 0.006566
0.000043 0.000003 0.000031 -999.999939 -0.000862 -0.000533
0.000043 0.000003 0.000033 -999.999939 -0.004408 -0.005340
0.000043 0.000008 0.000043 -706.439087 -659.980225 -255.675507
0.000042 0.000007 0.000045 -313.384827 -836.633667 -449.259247
0.000042 0.000003 0.000052 -227.159790 -824.357300 -518.491516
0.000042 0.000008 0.000063 -1.739400 653.048279 757.314270
0.000042 0.000003 0.000068 0.004764 643.686340 765.289490
0.000042 0.000009 -0.000062 -0.584262 622.593140 -782.545410
0.000042 0.000010 -0.000061 -1.645484 412.045044 -911.161987
0.000042 0.000008 -0.000044 -310.148499 -848.440796 428.900970
0.000042 0.000008 -0.000042 -299.698303 -889.613159 344.629120
0.000042 0.000011 -0.000035 -360.679596 -905.153564 224.960464
0.000042 0.000012 -0.000030 -364.595917 -924.525879 111.002617
0.000042 0.000012 -0.000025 -293.688538 -955.629272 22.795126
0.000042 0.000012 -0.000021 -321.203125 -947.009888 -0.863468
0.000042 0.000012 -0.000013 -423.562195 -905.861511 3.143909
0.000042 0.000012 -0.000011 -460.183075 -887.773621 -9.462984
0.000042 0.000012 -0.000007 -499.989594 -866.017700 4.869258
0.000042 0.000012 0.000001 -397.031281 -917.738220 11.072967
0.000042 0.000012 0.000004 -334.447144 -942.336914 -12.082989
0.000042 0.000012 0.000011 -0.003058 -999.999939 0.001070
0.000042 0.000012 0.000018 -258.818848 -965.925842 0.001558
0.000042 0.000012 0.000020 -560.733032 -827.696350 22.292246
0.000042 0.000012 0.000023 -570.285461 -821.176025 21.079437
0.000042 0.000012 0.000029 -301.362457 -948.442505 -98.170609
0.000042 0.000010 0.000037 -317.856262 -919.501343 -231.267502
0.000042 0.000008 0.000042 -351.377441 -873.411926 -337.172821
0.000042 0.000008 0.000044 -508.702728 -801.013611 -315.592651
0.000042 0.000009 0.000062 -0.587637 622.604004 782.536621
0.000042 0.000013 -0.000061 -1.641395 141.086349 -989.995972
0.000042 0.000013 0.000061 -1.646440 141.094543 989.994812
0.000042 0.000018 -0.000061 -0.000339 0.007159 -999.999939
0.000042 0.000018 0.000061 -0.004141 -0.014318 999.999939
0.000042 0.000023 -0.000061 -0.000440 0.007159 -999.999939
0.000042 0.000023 0.000061 -0.009620 -0.000000 999.999939
0.000042 0.000032 -0.000057 0.000000 999.999939 0.000000
0.000042 0.000032 -0.000053 0.000000 999.999939 0.007703
0.000042 0.000032 -0.000051 0.000000 999.999939 0.000000
0.000042 0.000032 -0.000047 0.000000 999.999939 0.000000
0.000042 0.000032 -0.000042 0.000000 999.999939 0.000000
0.000042 0.000032 -0.000035 0.000000 999.999939 0.000000
0.000042 0.000032 -0.000030 0.000000 999.999939 0.000000
0.000042 0.000032 -0.000027 0.000000 999.999939 0.000000
0.000042 0.000032 -0.000019 0.000000 999.999939 0.000000
0.000042 0.000032 -0.000016 0.000000 999.999939 0.000000
0.000042 0.000032 -0.000012 0.000000 999.999939 0.000000
0.000042 0.000032 -0.000007 0.000000 999.999939 0.000000
0.000042 0.000032 -0.000002 0.000000 999.999939 0.000000
0.000042 0.000032 0.000003 0.000000 999.999939 0.000010
0.000042 0.000032 0.000008 0.000000 999.999939 0.000000
0.000042 0.000032 0.000013 0.000000 999.999939 0.006129
0.000042 0.000032 0.000018 0.000000 999.999939 0.000000
0.000042 0.000032 0.000023 0.000000 999.999939 0.000000
0.000042 0.000032 0.000028 0.000000 999.999939 0.000000
0.000042 0.000032 0.000033 0.000000 999.999939 -0.006850
0.000042 0.000032 0.000038 0.000000 999.999939 0.000000
0.000042 0.000032 0.000043 0.000000 999.999939 -0.000011
0.000042 0.000032 0.000049 0.000000 999.999939 0.000000
0.000042 0.000032 0.000053 0.000000 999.999939 0.000012
0.000042 0.000028 0.000061 -0.005360 0.007159 999.999939
0.000047 -0.000032 -0.000082 0.000000 0.000000 -999.999939
0.000047 -0.000032 -0.000077 0.000000 -999.999939 0.000000
0.000051 -0.000028 -0.000072 -194.516663 -331.705353 923.111572
0.000047 -0.000032 -0.000049 0.000000 -720.040955 -693.931396
0.000047 -0.000032 -0.000047 0.000000 -999.999939 0.000009
0.000047 -0.000032 -0.000042 0.000000 -999.999939 -0.004644
0.000047 -0.000029 -0.000037 0.000000 -330.280457 943.882751
0.000047 -0.000032 -0.000012 0.000000 -907.283081 -420.520294
0.000047 -0.000032 -0.000012 0.000000 -999.999939 0.000010
0.000047 -0.000032 -0.000007 0.000000 -999.999939 0.005516
0.000047 -0.000032 -0.000002 0.000000 -999.999939 0.005664
0.000047 -0.000032 0.000004 0.000000 -999.999939 0.000000
0.000047 -0.000032 0.000008 0.000000 -999.999939 -0.000010
0.000047 -0.000032 0.000042 0.000000 -851.913269 -523.682922
0.000047 -0.000032 0.000043 0.000000 -999.999939 -0.007260
0.000047 -0.000032 0.000048 0.000000 -999.999939 0.000000
0.000047 -0.000031 0.000073 0.000000 -342.024750 -939.690979
0.000047 -0.000032 0.000074 0.000000 -428.408051 -903.585327
0.000047 -0.000032 0.000079 0.000000 -999.999939 0.000000
0.000047 -0.000027 -0.000082 -0.008313 0.015517 -999.999939
0.000047 -0.000027 -0.000072 0.000000 -342.016815 939.693848
0.000047 -0.000027 -0.000072 0.000000 -342.008972 939.696594
0.000047 -0.000027 -0.000049 0.000000 0.003118 -999.999939
0.000047 -0.000027 -0.000036 0.000000 -379.185059 925.320801
0.000047 -0.000022 -0.000017 0.000000 -846.724060 -532.032166
0.000047 -0.000027 -0.000013 0.000000 -330.277496 -943.883911
0.000047 -0.000027 0.000010 0.000000 -290.281769 956.941223
0.000047 -0.000027 0.000041 0.000000 -290.287598 -956.939392
0.000047 -0.000027 0.000051 0.000000 0.000018 999.999939
0.000047 -0.000027 0.000072 0.000000 -342.026886 -939.690125
0.000047 -0.000027 0.000082 0.017854 -0.015519 999.999939
0.000047 -0.000022 -0.000081 -0.003071 342.029114 -939.689270
0.000047 -0.000022 -0.000068 0.007356 -265.881470 964.005798
0.000047 -0.000018 -0.000067 19.813293 -348.691711 937.028015
0.000047 -0.000022 -0.000049 0.000000 -0.000018 -999.999939
0.000047 -0.000022 -0.000032 0.000000 -846.722595 532.034485
0.000047 -0.000022 -0.000032 0.000000 -846.724243 532.031921
0.000047 -0.000020 -0.000026 0.000000 -993.712036 111.966064
0.000047 -0.000022 -0.000017 0.000000 -846.726929 -532.027710
0.000047 -0.000022 0.000013 0.000000 -634.394104 773.009644
0.000047 -0.000022 0.000013 0.000000 -634.393921 773.009888
0.000047 -0.000018 0.000018 0.000000 -881.921631 471.395905
0.000047 -0.000018 0.000032 0.000000 -881.918701 -471.401581
0.000047 -0.000022 0.000038 0.000000 -634.393188 -773.010437
0.000047 -0.000022 0.000051 0.009633 0.005835 999.999939
0.000047 -0.000020 0.000068 -0.545759 -272.704681 -962.097595
0.000047 -0.000022 0.000069 -0.549774 -272.720245 -962.093201
0.000047 -0.000022 0.000081 0.005877 342.012390 939.695435
0.000047 -0.000017 -0.000079 -0.002936 342.013885 -939.694885
0.000047 -0.000017 -0.000067 -0.277305 -369.524261 929.221069
0.000047 -0.000017 -0.000049 -0.000006 -0.000010 -999.999939
0.000047 -0.000017 0.000020 0.000000 -952.830078 303.504120
0.000047 -0.000016 0.000023 0.000000 -995.184875 98.015747
0.000047 -0.000017 0.000030 0.001397 -956.939758 -290.286377
0.000047 -0.000017 0.000051 0.000002 -0.000012 999.999939
0.000047 -0.000017 0.000067 -0.826464 -389.255066 -921.129700
0.000047 -0.000014 0.000078 -0.003401 388.593506 921.409302
0.000047 -0.000017 0.000079 -0.001948 342.001251 939.699463
0.000047 -0.000012 -0.000077 0.002086 388.589294 -921.411011
0.000047 -0.000011 -0.000077 0.005264 388.605560 -921.404175
0.000047 -0.000012 -0.000064 -0.483328 -468.766418 883.322083
0.000047 -0.000008 -0.000062 -735.609009 -639.304016 -223.986084
0.000047 -0.000012 -0.000049 0.006497 0.002998 -999.999939
0.000047 -0.000011 0.000051 0.000000 0.002661 999.999939
0.000047 -0.000009 0.000063 -0.855238 -499.852417 -866.110107
0.000047 -0.000012 0.000065 -0.827320 -486.891418 -873.462097
0.000047 -0.000012 0.000077 0.002066 388.589294 921.411072
0.000047 -0.000007 -0.000075 -0.002201 478.689209 -877.984497
0.000051 -0.000002 -0.000072 214.644730 596.401672 -773.454956
0.000047 -0.000007 -0.000061 -2.685250 -562.405884 826.856873
0.000047 -0.000007 -0.000049 0.000000 -0.000016 -999.999939
0.000047 -0.000006 0.000011 34.873592 723.584412 689.354248
0.000047 -0.000006 0.000013 0.000608 999.999939 0.000000
0.000047 -0.000007 0.000051 0.000000 0.002544 999.999939
0.000051 -0.000002 0.000058 -324.149445 -615.486450 -718.403503
0.000047 -0.000007 0.000062 -0.946162 -602.813843 -797.881226
0.000047 -0.000004 0.000073 0.005498 564.016235 825.763672
0.000047 -0.000007 0.000075 -0.001644 478.699371 877.978821
0.000048 -0.000002 -0.000072 0.014488 564.021057 -825.760315
0.000047 -0.000002 -0.000072 -0.001854 564.021606 -825.759949
0.000047 -0.000002 -0.000058 -3.003009 -649.313965 760.514648
0.000047 -0.000001 -0.000057 -1.889078 -712.882751 701.280701
0.000047 -0.000002 -0.000049 0.000000 0.000016 -999.999939
0.000047 -0.000002 0.000010 -816.920593 549.451660 175.338074
0.000047 -0.000002 0.000016 0.000353 0.000000 -999.999939
0.000047 -0.000002 0.000051 0.000000 -0.557083 999.999817
0.000047 -0.000002 0.000058 -0.893480 -697.010803 -717.059998
0.000047 -0.000002 0.000058 -0.888470 -697.017090 -717.053955
0.000047 0.000003 0.000068 0.000000 643.694214 765.282715
0.000047 -0.000002 0.000072 -0.015135 564.006409 825.770386
0.000047 0.000003 -0.000068 -0.007032 643.694641 -765.282349
0.000047 0.000004 -0.000067 0.022865 716.923340 -697.152039
0.000047 0.000003 0.000010 0.000269 -0.001306 999.999939
0.000047 0.000003 0.000016 0.000353 0.000000 -999.999939
0.000048 0.000008 0.000063 -1.643255 650.201172 759.760315
0.000047 0.000003 0.000068 -0.008619 643.701172 765.276978
0.000047 0.000008 -0.000063 -1.654623 650.200684 -759.760620
0.000047 0.000009 -0.000062 -1.648080 412.058868 -911.155701
0.000047 0.000008 0.000010 -0.001030 -0.001135 999.999939
0.000047 0.000008 0.000016 0.000353 0.000000 -999.999939
0.000047 0.000008 0.000063 -1.645801 650.197205 759.763611
0.000047 0.000013 -0.000061 -1.650161 141.088058 -989.995667
0.000047 0.000013 0.000061 -1.650148 141.088364 989.995605
0.000047 0.000018 -0.000061 0.004029 0.014138 -999.999939
0.000047 0.000018 0.000061 0.009390 0.000000 999.999939
0.000047 0.000023 -0.000061 -0.005939 0.021207 -999.999939
0.000047 0.000023 0.000061 -0.003870 -0.014138 999.999939
0.000047 0.000028 -0.000061 -0.001018 0.014138 -999.999939
0.000047 0.000032 -0.000056 0.000000 999.999939 0.004345
0.000047 0.000032 -0.000051 0.000000 999.999939 0.000000
0.000047 0.000032 -0.000047 0.000000 999.999939 0.000000
0.000047 0.000032 -0.000042 0.000000 999.999939 0.000000
0.000047 0.000032 -0.000037 0.000000 999.999939 0.000000
0.000047 0.000032 -0.000032 0.000000 999.999939 0.000000
0.000047 0.000032 -0.000027 0.000000 999.999939 0.000000
0.000047 0.000032 -0.000022 0.000000 999.999939 -0.005113
0.000047 0.000032 -0.000016 0.000000 999.999939 0.000000
0.000047 0.000032 -0.000012 0.000000 999.999939 0.000000
0.000047 0.000032 -0.000007 0.000000 999.999939 0.000000
0.000047 0.000032 -0.000002 0.000000 999.999939 0.000000
0.000047 0.000032 0.000004 0.000000 999.999939 -0.000010
0.000047 0.000032 0.000008 0.000000 999.999939 0.000000
0.000047 0.000032 0.000013 0.000000 999.999939 0.006129
0.000047 0.000032 0.000018 0.000000 999.999939 0.000000
0.000047 0.000032 0.000023 0.000000 999.999939 0.000000
0.000047 0.000032 0.000028 0.000000 999.999939 0.000000
0.000047 0.000032 0.000033 0.000000 999.999939 -0.006850
0.000047 0.000032 0.000038 0.000000 999.999939 0.000000
0.000047 0.000032 0.000043 0.000000 999.999939 -0.000011
0.000047 0.000032 0.000049 0.000000 999.999939 0.000000
0.000047 0.000032 0.000053 0.000000 999.999939 0.000012
0.000047 0.000028 0.000061 0.004700 0.000000 999.999939
0.000052 -0.000032 -0.000081 0.000000 -999.999939 0.000000
0.000052 -0.000032 -0.000076 0.000000 -999.999939 -0.008903
0.000052 -0.000029 -0.000072 -446.176208 -299.979706 843.171875
0.000055 -0.000032 -0.000067 -786.621033 -587.705750 -189.286194
0.000055 -0.000032 -0.000062 -951.899048 -260.647400 -161.092926
0.000055 -0.000032 -0.000056 -970.261475 -205.906143 -127.260437
0.000052 -0.000032 -0.000049 0.000000 -720.040955 -693.931396
0.000052 -0.000032 -0.000046 0.000000 -999.999939 0.007384
0.000052 -0.000032 -0.000041 0.000000 -999.999939 0.000000
0.000052 -0.000028 -0.000037 0.000000 -330.276031 943.884338
0.000052 -0.000032 -0.000012 0.000000 -111.966034 -993.712036
0.000052 -0.000032 -0.000011 0.000000 -999.999939 -0.000010
0.000052 -0.000032 -0.000007 0.000000 -999.999939 0.005526
0.000052 -0.000032 -0.000001 0.000000 -999.999939 -0.005674
0.000052 -0.000032 0.000003 0.000000 -999.999939 -0.005804
0.000052 -0.000032 0.000009 0.000000 -999.999939 0.000010
0.000052 -0.000032 0.000042 0.000000 -851.913269 -523.682922
0.000052 -0.000032 0.000043 0.000000 -999.999939 0.007282
0.000052 -0.000032 0.000048 0.000000 -999.999939 0.007475
0.000055 -0.000032 0.000053 -903.901611 -106.727303 414.211487
0.000055 -0.000032 0.000059 -645.776855 -755.558716 -110.014542
0.000055 -0.000028 0.000068 -891.638245 -150.739227 -426.918030
0.000052 -0.000032 0.000073 -477.068817 -625.105469 -617.776978
0.000052 -0.000032 0.000074 0.000000 -999.999939 0.000000
0.000052 -0.000032 0.000079 0.000000 -999.999939 0.000000
0.000052 -0.000026 -0.000082 74.170860 99.612709 -992.257935
0.000052 -0.000027 -0.000071 -416.655426 -306.460938 855.850342
