ply
format ascii 1.0
comment SurfExtract output
element vertex 835
property float x
property float y
property float z
property float nx
property float ny
property float nz
end_header
-0.312125 0.324000 -0.336038 0.000000 1.000000 0.000000
-0.313512 0.324000 -0.297636 0.000000 1.000000 0.000000
-0.310958 0.324000 -0.255100 0.000000 1.000000 0.000000
-0.312332 0.324000 -0.217867 0.000000 1.000000 0.000000
-0.313407 0.324000 -0.176616 0.000000 1.000000 0.000000
-0.310912 0.324000 -0.136021 0.000000 1.000000 0.000000
-0.311982 0.324000 -0.096068 0.000000 1.000000 0.000000
-0.313034 0.324000 -0.056741 0.000000 1.000000 0.000000
-0.310600 0.324000 -0.018026 0.000000 1.000000 0.000000
-0.311381 0.324000 0.024292 0.000000 1.000000 0.000000
-0.312148 0.324000 0.065890 0.000000 1.000000 0.000000
-0.313165 0.324000 0.102729 0.000000 1.000000 0.000000
-0.310548 0.324000 0.143011 0.000000 1.000000 0.000000
-0.311303 0.324000 0.182625 0.000000 1.000000 0.000000
-0.311790 0.324000 0.225449 0.000000 1.000000 0.000000
-0.312522 0.324000 0.263714 0.000000 1.000000 0.000000
-0.312990 0.324000 0.305092 0.000000 1.000000 0.000000
-0.313700 0.324000 0.342075 0.000000 1.000000 0.000000
-0.310960 0.324000 0.382078 0.000000 1.000000 0.000000
-0.311185 0.324000 0.424929 0.000000 1.000000 0.000000
-0.311648 0.324000 0.463504 0.000000 1.000000 0.000000
-0.311862 0.324000 0.504838 0.000000 1.000000 0.000000
-0.312311 0.324000 0.542062 0.000000 1.000000 0.000000
-0.312033 0.319333 0.607500 0.000000 0.000000 1.000000
-0.272107 -0.324000 -0.816255 0.000000 -0.187809 -0.982206
-0.270209 -0.324000 -0.776225 0.000000 -1.000000 0.000000
-0.268974 -0.324000 -0.737602 0.000000 -0.828235 0.560381
-0.271715 -0.324000 0.740663 0.000000 -1.000000 0.000000
-0.271318 -0.324000 0.746770 0.000000 -1.000000 0.000000
-0.271674 -0.324000 0.786035 0.000000 -1.000000 0.000000
-0.271875 -0.320563 -0.818100 0.000000 0.000000 -1.000000
-0.272581 -0.319822 -0.735579 0.000000 -0.342020 0.939693
-0.272582 -0.319822 0.735579 0.000000 -0.342020 -0.939693
-0.271877 -0.320564 0.818100 0.000000 0.000000 1.000000
-0.271876 -0.279987 -0.818100 0.000000 0.000000 -1.000000
-0.271673 -0.250270 -0.817830 -0.000467 0.132663 -0.991161
-0.270956 -0.280122 -0.721130 0.000000 -0.342023 0.939692
-0.270962 -0.280122 0.721130 0.000000 -0.342023 -0.939692
-0.271878 -0.279985 0.818100 0.000000 0.000000 1.000000
-0.270252 -0.239722 -0.815968 0.002210 0.173606 -0.984813
-0.273310 -0.240114 -0.706024 0.000000 -0.656777 0.754085
-0.272277 -0.234061 -0.697381 0.000000 -0.819147 0.573584
-0.271503 -0.235127 0.698902 0.000000 -0.819142 -0.573591
-0.269260 -0.240114 0.706024 0.000000 -0.656762 -0.754098
-0.273617 -0.239516 0.815939 0.002207 0.173662 0.984803
-0.270947 -0.202821 -0.803476 -0.000001 0.342016 -0.939694
-0.270845 -0.199361 -0.673987 0.000307 -0.271856 0.962338
-0.271100 -0.201553 0.682962 0.000000 -0.261301 -0.965257
-0.273581 -0.200048 0.802467 0.000001 0.342021 0.939692
-0.270243 -0.162993 -0.788980 -0.000006 0.342018 -0.939693
-0.273418 -0.134512 -0.778070 0.000000 0.388602 -0.921406
-0.273144 -0.160977 -0.661007 0.000546 -0.386778 0.922173
-0.273597 -0.152871 -0.657607 0.000546 -0.386782 0.922171
-0.270443 -0.142510 0.661853 -0.000820 -0.403192 -0.915115
-0.269288 -0.163104 0.670090 0.000403 -0.356279 -0.934380
-0.271117 -0.141512 0.781022 -0.000083 0.386592 0.922251
-0.272894 -0.160212 0.787968 -0.000006 0.342027 0.939690
-0.272623 -0.123959 -0.773619 0.000002 0.388601 -0.921406
-0.271203 -0.120870 -0.643254 -0.000474 -0.477054 0.878874
-0.271656 -0.119204 0.650350 0.000567 -0.447707 -0.894180
-0.272720 -0.119732 0.771836 -0.000006 0.388594 0.921409
-0.271851 -0.081947 -0.754240 0.000002 0.478685 -0.877987
-0.269047 -0.049004 -0.736257 -0.000686 0.524799 -0.851226
-0.273162 -0.079997 -0.619775 -0.000070 -0.544412 0.838818
-0.273320 -0.076453 -0.617439 -0.000070 -0.555519 0.831504
-0.273072 -0.070129 0.621170 0.000533 -0.559620 -0.828749
-0.270850 -0.079140 0.626872 0.000466 -0.534661 -0.845067
-0.269498 -0.059113 0.741790 -0.000002 0.478689 0.877985
-0.270771 -0.079239 0.752763 0.000003 0.478685 0.877987
-0.271822 -0.040668 -0.730563 0.000001 0.564025 -0.825757
-0.273138 -0.043888 -0.593356 0.000817 -0.627961 0.778244
-0.272778 -0.025068 -0.577212 0.001276 -0.670685 0.741741
-0.273192 -0.020985 0.581475 -0.000565 -0.688032 -0.725680
-0.273549 -0.042213 0.600184 0.000179 -0.634498 -0.772924
-0.271822 -0.040670 0.730565 -0.000000 0.564016 0.825764
-0.270643 -0.001609 -0.703242 0.000004 0.643678 -0.765296
-0.271719 0.004835 -0.697822 0.000002 0.643679 -0.765295
-0.271717 -0.003007 -0.555276 0.001982 -0.733086 0.680133
-0.272120 0.013876 -0.536766 -0.001702 -0.744227 0.667925
-0.271955 0.016561 0.541602 0.000856 -0.750150 -0.661267
-0.271518 0.000115 0.560260 0.000857 -0.750148 -0.661269
-0.271692 0.000915 0.701120 0.000000 0.643688 0.765288
-0.272878 -0.001414 0.703079 0.000001 0.643687 0.765289
-0.269372 0.038844 -0.668429 0.000001 0.716930 -0.697146
-0.271503 0.050563 -0.656377 -0.000003 0.716930 -0.697145
-0.272495 0.039489 -0.503664 -0.001449 -0.814281 0.580469
-0.272540 0.044361 -0.496824 -0.001450 -0.814502 0.580159
-0.272473 0.070413 -0.453225 -0.001191 -0.874502 0.485020
-0.269511 0.070803 0.460411 0.000679 -0.877485 -0.479605
-0.272954 0.050305 0.496235 0.000777 -0.818870 -0.573978
-0.272361 0.040812 0.509778 0.000779 -0.818869 -0.573980
-0.272145 0.045601 0.661480 0.000000 0.716920 0.697155
-0.272097 0.040746 0.666472 -0.000001 0.716920 0.697156
-0.270502 0.077397 -0.629346 0.001458 0.655499 -0.755195
-0.268968 0.095425 -0.616705 0.001083 0.431461 -0.902131
-0.272415 0.076512 -0.442005 0.001227 -0.903963 0.427608
-0.272019 0.088371 -0.414054 -0.000914 -0.923439 0.383745
-0.271293 0.101544 -0.376737 0.000936 -0.958906 0.283721
-0.270264 0.111760 -0.337527 0.000639 -0.985142 0.171740
-0.270313 0.115261 0.325428 0.000215 -0.986130 -0.165975
-0.270942 0.105798 0.370126 0.000399 -0.961639 -0.274318
-0.270933 0.090718 0.416335 0.000555 -0.925268 -0.379313
-0.272652 0.080962 0.440132 0.000555 -0.923069 -0.384634
-0.271311 0.089383 0.620154 -0.001678 0.537537 0.843239
-0.272305 0.080363 0.626812 0.001646 0.650206 0.759756
-0.270828 0.119211 -0.608978 0.001645 0.141087 -0.989996
-0.273543 0.116495 -0.310102 -0.000322 -0.985789 0.167987
-0.273075 0.118691 -0.296346 0.000334 -0.995244 0.097414
-0.271454 0.120915 -0.257428 0.000000 -0.998417 0.056242
-0.273796 0.121500 -0.217876 0.000000 -1.000000 0.000000
-0.271726 0.121500 -0.173565 0.000000 -1.000000 0.000000
-0.269912 0.121500 -0.134737 0.000000 -1.000000 0.000000
-0.272153 0.121500 -0.096423 0.000000 -1.000000 0.000000
-0.270138 0.121500 -0.053923 0.000000 -1.000000 0.000000
-0.272347 0.121500 -0.016671 0.000000 -1.000000 0.000000
-0.270358 0.121500 0.024660 0.000000 -1.000000 0.000000
-0.272315 0.121500 0.065392 0.000000 -1.000000 0.000000
-0.270355 0.121500 0.105537 0.000000 -1.000000 0.000000
-0.272285 0.121500 0.145109 0.000000 -1.000000 0.000000
-0.270350 0.121500 0.184122 0.000000 -1.000000 0.000000
-0.272040 0.121500 0.226819 0.000000 -1.000000 0.000000
-0.270081 0.120955 0.264946 0.000000 -0.998456 -0.055542
-0.271733 0.118805 0.303289 -0.000226 -0.995717 -0.092450
-0.270828 0.119211 0.608979 0.001644 0.141087 0.989996
-0.269830 0.160554 -0.607500 0.000000 0.000000 -1.000000
-0.273379 0.160418 0.607500 0.000000 0.000000 1.000000
-0.269830 0.198850 -0.607500 0.000000 0.000000 -1.000000
-0.273380 0.198683 0.607500 0.000000 0.000000 1.000000
-0.269830 0.240093 -0.607500 0.000000 0.000000 -1.000000
-0.273380 0.239891 0.607500 0.000000 0.000000 1.000000
-0.269830 0.278390 -0.607500 0.000000 0.000000 -1.000000
-0.273380 0.278156 0.607500 0.000000 0.000000 1.000000
-0.269830 0.319633 -0.607500 0.000000 0.000000 -1.000000
-0.272175 0.324000 -0.573574 0.000000 1.000000 0.000000
-0.270357 0.324000 -0.536844 0.000000 1.000000 0.000000
-0.272114 0.324000 -0.495464 0.000000 1.000000 0.000000
-0.270067 0.324000 -0.454708 0.000000 1.000000 0.000000
-0.271799 0.324000 -0.414561 0.000000 1.000000 0.000000
-0.273506 0.324000 -0.375008 0.000000 1.000000 0.000000
-0.271494 0.324000 -0.336038 0.000000 1.000000 0.000000
-0.273178 0.324000 -0.297636 0.000000 1.000000 0.000000
-0.270951 0.324000 -0.255100 0.000000 1.000000 0.000000
-0.272613 0.324000 -0.217867 0.000000 1.000000 0.000000
-0.270426 0.324000 -0.176616 0.000000 1.000000 0.000000
-0.271826 0.324000 -0.136021 0.000000 1.000000 0.000000
-0.273204 0.324000 -0.096068 0.000000 1.000000 0.000000
-0.271063 0.324000 -0.056741 0.000000 1.000000 0.000000
-0.272426 0.324000 -0.018026 0.000000 1.000000 0.000000
-0.273533 0.324000 0.024292 0.000000 1.000000 0.000000
-0.271210 0.324000 0.065890 0.000000 1.000000 0.000000
-0.272538 0.324000 0.102729 0.000000 1.000000 0.000000
-0.273618 0.324000 0.143011 0.000000 1.000000 0.000000
-0.271350 0.324000 0.182625 0.000000 1.000000 0.000000
-0.272197 0.324000 0.225449 0.000000 1.000000 0.000000
-0.273252 0.324000 0.263714 0.000000 1.000000 0.000000
-0.270825 0.324000 0.305092 0.000000 1.000000 0.000000
-0.271874 0.324000 0.342075 0.000000 1.000000 0.000000
-0.272688 0.324000 0.382078 0.000000 1.000000 0.000000
-0.273274 0.324000 0.424929 0.000000 1.000000 0.000000
-0.270930 0.324000 0.463504 0.000000 1.000000 0.000000
-0.271522 0.324000 0.504838 0.000000 1.000000 0.000000
-0.272310 0.324000 0.542062 0.000000 1.000000 0.000000
-0.273380 0.319363 0.607500 0.000000 0.000000 1.000000
-0.231794 -0.324000 -0.816255 0.000000 -0.187809 -0.982206
-0.230178 -0.324000 -0.776225 0.000000 -1.000000 0.000000
-0.230759 -0.324000 -0.737602 0.000000 -0.828235 0.560381
-0.233528 -0.324000 0.740663 0.000000 -1.000000 0.000000
-0.233187 -0.324000 0.746770 0.000000 -1.000000 0.000000
-0.230996 -0.324000 0.786035 0.000000 -1.000000 0.000000
-0.230815 -0.321247 -0.818100 0.000000 0.000000 -1.000000
-0.232788 -0.319822 -0.735579 0.000000 -0.342020 0.939693
-0.232789 -0.319822 0.735579 0.000000 -0.342020 -0.939693
-0.230817 -0.321248 0.818100 0.000000 0.000000 1.000000
-0.230816 -0.280238 -0.818100 0.000000 0.000000 -1.000000
-0.230527 -0.250221 -0.817729 0.000747 0.151090 -0.988520
-0.230814 -0.280122 -0.721130 0.000000 -0.342023 0.939692
-0.230820 -0.280122 0.721130 0.000000 -0.342023 -0.939692
-0.230818 -0.280237 0.818100 0.000000 0.000000 1.000000
-0.229041 -0.239558 -0.815846 0.002217 0.173613 -0.984811
-0.232820 -0.240114 -0.706024 0.000000 -0.656777 0.754085
-0.233631 -0.234061 -0.697381 0.000000 -0.819147 0.573584
-0.231622 -0.235127 0.698902 0.000000 -0.819142 -0.573591
-0.232819 -0.240114 0.706024 0.000000 -0.656762 -0.754098
-0.232478 -0.239350 0.815818 0.002214 0.173661 0.984803
-0.229572 -0.202252 -0.803269 0.000003 0.342011 -0.939696
-0.230116 -0.199351 -0.673997 0.000308 -0.271857 0.962338
-0.230333 -0.201553 0.682962 0.000000 -0.262037 -0.965058
-0.232246 -0.199449 0.802249 0.000000 0.342024 0.939691
-0.232042 -0.161851 -0.788564 0.000001 0.342019 -0.939693
-0.229264 -0.129411 -0.775918 -0.000003 0.388602 -0.921406
-0.232072 -0.160958 -0.661023 0.000546 -0.386784 0.922170
-0.232457 -0.152853 -0.657623 0.000546 -0.386776 0.922173
-0.229150 -0.142537 0.661828 -0.000818 -0.397226 -0.917721
-0.232287 -0.163092 0.670101 0.000411 -0.356284 -0.934378
-0.232749 -0.140158 0.780451 -0.000001 0.388602 0.921406
-0.231291 -0.159179 0.787592 0.000003 0.342022 0.939692
-0.230974 -0.123909 -0.773598 -0.000001 0.388592 -0.921410
-0.229796 -0.120885 -0.643240 -0.000480 -0.472431 0.881367
-0.230184 -0.119185 0.650366 0.000567 -0.447712 -0.894178
-0.230564 -0.119761 0.771849 -0.000002 0.388601 0.921406
-0.229423 -0.080052 -0.753207 0.000006 0.478685 -0.877987
-0.230906 -0.049468 -0.736532 0.000618 0.517339 -0.855780
-0.231457 -0.079999 -0.619773 -0.000070 -0.547266 0.836959
-0.231588 -0.076457 -0.617438 -0.000070 -0.555826 0.831299
-0.233360 -0.070052 0.621141 0.000000 -0.561560 -0.827436
-0.232523 -0.079109 0.626873 0.000461 -0.534661 -0.845067
-0.233179 -0.055023 0.739560 0.000000 0.478686 0.877986
-0.232904 -0.079984 0.753169 -0.000003 0.478686 0.877986
-0.230172 -0.041088 -0.730850 0.000004 0.564025 -0.825758
-0.231701 -0.043845 -0.593365 0.000823 -0.628254 0.778008
-0.231340 -0.025208 -0.577383 0.000606 -0.669416 0.742888
-0.232462 -0.021041 0.581497 -0.000567 -0.689334 -0.724443
-0.233269 -0.042245 0.600196 -0.000395 -0.632725 -0.774377
-0.233676 -0.041054 0.730827 0.000000 0.564017 0.825763
-0.230775 -0.001595 -0.703230 -0.000002 0.643675 -0.765299
-0.231757 0.004793 -0.697857 0.000001 0.643679 -0.765295
-0.233807 -0.002950 -0.555325 0.001982 -0.733737 0.679430
-0.229925 0.013821 -0.536719 -0.001706 -0.744227 0.667925
-0.230389 0.016634 0.541574 0.000856 -0.750148 -0.661270
-0.231010 -0.000590 0.561111 0.000861 -0.750148 -0.661270
-0.231387 0.000257 0.701673 -0.000004 0.643688 0.765288
-0.230788 -0.001429 0.703092 0.000005 0.643686 0.765290
-0.232370 0.036254 -0.671092 0.000273 0.701775 -0.712399
-0.232750 0.050271 -0.656677 0.000002 0.716932 -0.697143
-0.230242 0.039442 -0.503625 -0.001448 -0.814504 0.580156
-0.230280 0.044313 -0.496786 -0.001450 -0.814502 0.580159
-0.230227 0.070374 -0.453191 -0.001193 -0.874502 0.485020
-0.229107 0.070543 0.460944 0.000680 -0.877484 -0.479605
-0.230637 0.050331 0.496255 0.000778 -0.818871 -0.573977
-0.233708 0.040863 0.509758 0.000780 -0.818871 -0.573977
-0.230954 0.045601 0.661480 0.000000 0.716920 0.697155
-0.231633 0.040386 0.666843 0.000002 0.716924 0.697152
-0.230738 0.078160 -0.628607 0.001487 0.654638 -0.755941
-0.230307 0.093308 -0.617734 -0.000333 0.492728 -0.870183
-0.230186 0.076555 -0.442035 0.000716 -0.898760 0.438441
-0.229842 0.088340 -0.414028 -0.000915 -0.923439 0.383745
-0.233438 0.101556 -0.376744 -0.000625 -0.960494 0.278301
-0.232552 0.111782 -0.337542 0.000638 -0.985142 0.171740
-0.231421 0.115897 0.321698 0.000214 -0.986130 -0.165974
-0.230396 0.105817 0.370117 0.000401 -0.961639 -0.274318
-0.230932 0.090747 0.416323 0.000555 -0.925269 -0.379312
-0.230382 0.080981 0.440147 0.000381 -0.920624 -0.390450
-0.231672 0.090249 0.619681 -0.001677 0.537537 0.843239
-0.230644 0.080250 0.626818 0.001646 0.650206 0.759756
-0.231254 0.120348 -0.608751 0.001643 0.141092 -0.989995
-0.231779 0.116483 -0.310094 -0.000321 -0.985789 0.167986
-0.231385 0.118704 -0.296356 0.000333 -0.994954 0.100333
-0.230012 0.120915 -0.257428 0.000000 -0.998417 0.056242
-0.232626 0.121500 -0.217876 0.000000 -1.000000 0.000000
-0.230867 0.121500 -0.173565 0.000000 -1.000000 0.000000
-0.233384 0.121500 -0.134737 0.000000 -1.000000 0.000000
-0.231836 0.121500 -0.096423 0.000000 -1.000000 0.000000
-0.230119 0.121500 -0.053923 0.000000 -1.000000 0.000000
-0.232589 0.121500 -0.016670 0.000000 -1.000000 0.000000
-0.230891 0.121500 0.024661 0.000000 -1.000000 0.000000
-0.233134 0.121500 0.065393 0.000000 -1.000000 0.000000
-0.231456 0.121500 0.105538 0.000000 -1.000000 0.000000
-0.233660 0.121500 0.145109 0.000000 -1.000000 0.000000
-0.232001 0.121500 0.184120 0.000000 -1.000000 0.000000
-0.230187 0.121500 0.226819 0.000000 -1.000000 0.000000
-0.232308 0.120955 0.264946 0.000000 -0.998456 -0.055542
-0.230504 0.118795 0.303293 -0.000227 -0.995906 -0.090391
-0.231254 0.120348 0.608751 0.001643 0.141083 0.989996
-0.230383 0.159090 -0.607500 0.000000 0.000000 -1.000000
-0.230383 0.159091 0.607500 0.000000 0.000000 1.000000
-0.230383 0.200721 -0.607500 0.000000 0.000000 -1.000000
-0.230383 0.200722 0.607500 0.000000 0.000000 1.000000
-0.230383 0.239378 -0.607500 0.000000 0.000000 -1.000000
-0.230383 0.239379 0.607500 0.000000 0.000000 1.000000
-0.230383 0.278035 -0.607500 0.000000 0.000000 -1.000000
-0.230384 0.278036 0.607500 0.000000 0.000000 1.000000
-0.230384 0.319666 -0.607500 0.000000 0.000000 -1.000000
-0.233569 0.324000 -0.573574 0.000000 1.000000 0.000000
-0.232009 0.324000 -0.536844 0.000000 1.000000 0.000000
-0.230250 0.324000 -0.495464 0.000000 1.000000 0.000000
-0.232295 0.324000 -0.454708 0.000000 1.000000 0.000000
-0.230561 0.324000 -0.414560 0.000000 1.000000 0.000000
-0.232573 0.324000 -0.375008 0.000000 1.000000 0.000000
-0.230862 0.324000 -0.336038 0.000000 1.000000 0.000000
-0.232842 0.324000 -0.297636 0.000000 1.000000 0.000000
-0.230945 0.324000 -0.255100 0.000000 1.000000 0.000000
-0.232895 0.324000 -0.217867 0.000000 1.000000 0.000000
-0.231026 0.324000 -0.176616 0.000000 1.000000 0.000000
-0.232740 0.324000 -0.136021 0.000000 1.000000 0.000000
-0.230901 0.324000 -0.096068 0.000000 1.000000 0.000000
-0.232590 0.324000 -0.056741 0.000000 1.000000 0.000000
-0.230781 0.324000 -0.018026 0.000000 1.000000 0.000000
-0.232245 0.324000 0.024292 0.000000 1.000000 0.000000
-0.233684 0.324000 0.065890 0.000000 1.000000 0.000000
-0.231911 0.324000 0.102729 0.000000 1.000000 0.000000
-0.233330 0.324000 0.143011 0.000000 1.000000 0.000000
-0.231396 0.324000 0.182625 0.000000 1.000000 0.000000
-0.232605 0.324000 0.225449 0.000000 1.000000 0.000000
-0.230710 0.324000 0.263714 0.000000 1.000000 0.000000
-0.231904 0.324000 0.305092 0.000000 1.000000 0.000000
-0.233264 0.324000 0.342075 0.000000 1.000000 0.000000
-0.231227 0.324000 0.382078 0.000000 1.000000 0.000000
-0.232204 0.324000 0.424929 0.000000 1.000000 0.000000
-0.233344 0.324000 0.463504 0.000000 1.000000 0.000000
-0.231181 0.324000 0.504838 0.000000 1.000000 0.000000
-0.232310 0.324000 0.542062 0.000000 1.000000 0.000000
-0.230384 0.319666 0.607500 0.000000 0.000000 1.000000
-0.191482 -0.324000 -0.816255 0.000000 -0.187809 -0.982206
-0.190147 -0.324000 -0.776225 0.000000 -1.000000 0.000000
-0.189604 -0.324000 -0.737602 0.000000 -0.828235 0.560381
-0.192403 -0.324000 0.740663 0.000000 -1.000000 0.000000
-0.192123 -0.324000 0.746770 0.000000 -1.000000 0.000000
-0.193223 -0.324000 0.786035 0.000000 -1.000000 0.000000
-0.188869 -0.319182 -0.818100 0.000000 0.000000 -1.000000
-0.192995 -0.319822 -0.735579 0.000000 -0.342020 0.939693
-0.189017 -0.319822 0.735579 0.000000 -0.342020 -0.939693
-0.188872 -0.319183 0.818100 0.000000 0.000000 1.000000
-0.188871 -0.280494 -0.818100 0.000000 0.000000 -1.000000
-0.191993 -0.249950 -0.817595 0.002150 0.172682 -0.984975
-0.190671 -0.280122 -0.721130 0.000000 -0.342023 0.939692
-0.190679 -0.280122 0.721130 0.000000 -0.342023 -0.939692
-0.192403 -0.280241 0.818100 0.000000 0.000000 1.000000
-0.190447 -0.239180 -0.815693 0.002219 0.173612 -0.984812
-0.192330 -0.240114 -0.706024 0.000000 -0.656777 0.754085
-0.191956 -0.234007 -0.697302 -0.000001 -0.819145 0.573586
-0.191741 -0.235127 0.698902 0.000000 -0.819142 -0.573591
-0.192329 -0.240114 0.706024 0.000000 -0.656762 -0.754098
-0.190447 -0.239180 0.815693 0.002214 0.173665 0.984802
-0.189153 -0.202541 -0.803374 -0.000002 0.342014 -0.939695
-0.193461 -0.199342 -0.674006 0.000308 -0.271852 0.962339
-0.189566 -0.201553 0.682962 0.000000 -0.264312 -0.964437
-0.190791 -0.201499 0.802995 0.000005 0.342024 0.939691
-0.189562 -0.160824 -0.788190 -0.000002 0.342016 -0.939694
-0.190059 -0.134536 -0.778080 -0.000001 0.388595 -0.921409
-0.190999 -0.160940 -0.661040 0.000546 -0.386308 0.922370
-0.191316 -0.152835 -0.657640 0.000540 -0.386782 0.922171
-0.191988 -0.142560 0.661805 -0.000816 -0.391892 -0.920011
-0.191174 -0.163078 0.670114 0.000410 -0.356279 -0.934379
-0.190994 -0.141604 0.781061 -0.000124 0.385412 0.922745
-0.193073 -0.160686 0.788140 -0.000000 0.342027 0.939690
-0.192170 -0.122967 -0.773201 -0.000001 0.388592 -0.921410
-0.192531 -0.120898 -0.643227 -0.000473 -0.468770 0.883320
-0.192859 -0.119168 0.650382 0.000560 -0.447706 -0.894181
-0.190773 -0.119629 0.771793 -0.000000 0.388597 0.921408
-0.190771 -0.080813 -0.753621 0.000006 0.478687 -0.877986
-0.192019 -0.049941 -0.736790 0.000507 0.510449 -0.859908
-0.189753 -0.080001 -0.619771 -0.000070 -0.547845 0.836580
-0.189858 -0.076460 -0.617437 -0.000070 -0.556139 0.831089
-0.193637 -0.070052 0.621141 0.000000 -0.563194 -0.826325
-0.191601 -0.079082 0.626879 0.000468 -0.534662 -0.845066
-0.189057 -0.059124 0.741796 0.000002 0.478683 0.877988
-0.190775 -0.080812 0.753621 0.000004 0.478683 0.877988
-0.191230 -0.041480 -0.731118 0.000001 0.564021 -0.825760
-0.190263 -0.043802 -0.593374 0.000823 -0.628815 0.777554
-0.193412 -0.024534 -0.576796 0.000034 -0.668596 0.743626
-0.191734 -0.021097 0.581518 -0.000570 -0.690653 -0.723186
-0.192989 -0.042292 0.600214 -0.000385 -0.630879 -0.775881
-0.191231 -0.041481 0.731119 -0.000000 0.564013 0.825766
-0.191427 -0.001444 -0.703103 -0.000003 0.643679 -0.765296
-0.192485 0.004752 -0.697892 -0.000000 0.643680 -0.765294
-0.191678 -0.002958 -0.555318 -0.001706 -0.744225 0.667926
-0.191952 0.013771 -0.536678 -0.001702 -0.744226 0.667926
-0.192285 0.016700 0.541547 0.000857 -0.750148 -0.661269
-0.189370 0.000630 0.559782 0.000855 -0.750150 -0.661267
-0.192595 0.000024 0.701870 0.000001 0.643689 0.765287
-0.191427 -0.001444 0.703104 -0.000003 0.643689 0.765288
-0.192487 0.036609 -0.670727 0.000203 0.705742 -0.708469
-0.192835 0.049828 -0.657132 0.000002 0.716929 -0.697146
-0.192216 0.039399 -0.503591 -0.001453 -0.814501 0.580160
-0.192248 0.044270 -0.496751 -0.001450 -0.814504 0.580156
-0.192207 0.070339 -0.453161 -0.001190 -0.874501 0.485022
-0.190146 0.070728 0.460661 0.000679 -0.877485 -0.479603
-0.192552 0.050354 0.496273 0.000777 -0.821417 -0.570328
-0.191540 0.040919 0.509736 0.000775 -0.818870 -0.573978
-0.192943 0.045552 0.661530 -0.000001 0.716921 0.697155
-0.192004 0.040650 0.666571 -0.000003 0.716924 0.697151
-0.192262 0.076253 -0.630156 0.001103 0.677035 -0.735950
-0.189836 0.094221 -0.617232 -0.000275 0.490792 -0.871276
-0.192173 0.076524 -0.442009 -0.001180 -0.894109 0.447848
-0.191884 0.088312 -0.414005 -0.000916 -0.923439 0.383745
-0.191372 0.101534 -0.376726 -0.000625 -0.960687 0.277633
-0.190649 0.111791 -0.337548 -0.000321 -0.985768 0.168109
-0.161166 0.114899 -0.296478 -0.464049 -0.879095 0.108856
-0.154389 0.114578 -0.255937 -0.594463 -0.804071 -0.009161
-0.154998 0.115295 -0.216290 -0.582747 -0.812606 -0.008769
-0.154534 0.114990 -0.173995 -0.656214 -0.754521 -0.009067
-0.154093 0.114209 -0.136463 -0.707093 -0.707092 -0.006401
-0.153879 0.114003 -0.093891 -0.707098 -0.707099 0.004926
-0.154097 0.114477 -0.057186 -0.680739 -0.732408 -0.013133
-0.155566 0.115768 -0.016370 -0.586706 -0.809750 0.008965
-0.155674 0.115691 0.023478 -0.583901 -0.811823 -0.001825
-0.192018 0.115279 0.325419 0.000214 -0.986130 -0.165975
-0.193534 0.105835 0.370109 0.000400 -0.961639 -0.274318
-0.190930 0.090776 0.416311 0.000554 -0.925268 -0.379313
-0.192335 0.080961 0.440132 -0.000737 -0.918401 -0.395650
-0.192676 0.088048 0.621162 -0.001674 0.537533 0.843241
-0.192636 0.080096 0.626868 0.001648 0.650210 0.759753
-0.191230 0.118477 -0.608951 0.000933 0.165765 -0.986165
-0.190016 0.116471 -0.310085 -0.000321 -0.985789 0.167986
-0.189695 0.118717 -0.296365 0.000334 -0.994668 0.103125
-0.192715 0.120915 -0.257428 0.000000 -0.998417 0.056242
-0.191455 0.121500 -0.217876 0.000000 -1.000000 0.000000
-0.190007 0.121500 -0.173565 0.000000 -1.000000 0.000000
-0.192797 0.121500 -0.134737 0.000000 -1.000000 0.000000
-0.191518 0.121500 -0.096423 0.000000 -1.000000 0.000000
-0.190100 0.121500 -0.053923 0.000000 -1.000000 0.000000
-0.192832 0.121500 -0.016670 0.000000 -1.000000 0.000000
-0.191423 0.121500 0.024662 0.000000 -1.000000 0.000000
-0.190035 0.121500 0.065393 0.000000 -1.000000 0.000000
-0.192552 0.121500 0.105538 0.000000 -1.000000 0.000000
-0.191179 0.121500 0.145110 0.000000 -1.000000 0.000000
-0.193654 0.121500 0.184120 0.000000 -1.000000 0.000000
-0.192139 0.121500 0.226819 0.000000 -1.000000 0.000000
-0.190756 0.120955 0.264946 0.000000 -0.998456 -0.055542
-0.193023 0.118786 0.303297 -0.000226 -0.996075 -0.088509
-0.191229 0.118477 0.608951 0.000933 0.165756 0.986166
-0.190187 0.160601 -0.607500 0.000000 0.000000 -1.000000
-0.190187 0.160602 0.607500 0.000000 0.000000 1.000000
-0.190187 0.199625 -0.607500 0.000000 0.000000 -1.000000
-0.190187 0.199626 0.607500 0.000000 0.000000 1.000000
-0.190187 0.238649 -0.607500 0.000000 0.000000 -1.000000
-0.190188 0.238651 0.607500 0.000000 0.000000 1.000000
-0.190188 0.280675 -0.607500 0.000000 0.000000 -1.000000
-0.190188 0.280676 0.607500 0.000000 0.000000 1.000000
-0.190188 0.319700 -0.607500 0.000000 0.000000 -1.000000
-0.191102 0.324000 -0.573574 0.000000 1.000000 0.000000
-0.193660 0.324000 -0.536844 0.000000 1.000000 0.000000
-0.192192 0.324000 -0.495464 0.000000 1.000000 0.000000
-0.190746 0.324000 -0.454708 0.000000 1.000000 0.000000
-0.193071 0.324000 -0.414560 0.000000 1.000000 0.000000
-0.191640 0.324000 -0.375008 0.000000 1.000000 0.000000
-0.190230 0.324000 -0.336038 0.000000 1.000000 0.000000
-0.192508 0.324000 -0.297636 0.000000 1.000000 0.000000
-0.190939 0.324000 -0.255100 0.000000 1.000000 0.000000
-0.193176 0.324000 -0.217867 0.000000 1.000000 0.000000
-0.191626 0.324000 -0.176616 0.000000 1.000000 0.000000
-0.193653 0.324000 -0.136021 0.000000 1.000000 0.000000
-0.192124 0.324000 -0.096068 0.000000 1.000000 0.000000
-0.190618 0.324000 -0.056741 0.000000 1.000000 0.000000
-0.192607 0.324000 -0.018026 0.000000 1.000000 0.000000
-0.190957 0.324000 0.024292 0.000000 1.000000 0.000000
-0.192747 0.324000 0.065890 0.000000 1.000000 0.000000
-0.191284 0.324000 0.102729 0.000000 1.000000 0.000000
-0.193043 0.324000 0.143011 0.000000 1.000000 0.000000
-0.191443 0.324000 0.182625 0.000000 1.000000 0.000000
-0.193013 0.324000 0.225449 0.000000 1.000000 0.000000
-0.191440 0.324000 0.263714 0.000000 1.000000 0.000000
-0.192983 0.324000 0.305092 0.000000 1.000000 0.000000
-0.191437 0.324000 0.342075 0.000000 1.000000 0.000000
-0.192955 0.324000 0.382078 0.000000 1.000000 0.000000
-0.191134 0.324000 0.424929 0.000000 1.000000 0.000000
-0.192626 0.324000 0.463504 0.000000 1.000000 0.000000
-0.190841 0.324000 0.504838 0.000000 1.000000 0.000000
-0.192309 0.324000 0.542062 0.000000 1.000000 0.000000
-0.190188 0.319700 0.607500 0.000000 0.000000 1.000000
-0.151170 -0.324000 -0.816255 0.000000 -0.187809 -0.982206
-0.150116 -0.324000 -0.776225 0.000000 -1.000000 0.000000
-0.151390 -0.324000 -0.737602 0.000000 -0.828235 0.560381
-0.139577 -0.324000 -0.555451 -0.772216 -0.481840 -0.414141
-0.139966 -0.324000 -0.536850 -0.681340 -0.731759 0.017466
-0.142713 -0.324000 -0.495464 -0.682930 -0.730263 0.017961
-0.141641 -0.324000 -0.454701 -0.684264 -0.729012 0.017997
-0.141286 -0.324000 -0.043758 -0.564527 -0.699633 -0.437975
-0.140430 -0.324000 -0.013750 -0.686945 -0.726445 0.019580
-0.142786 -0.324000 0.024302 -0.686579 -0.726778 0.020053
-0.134752 -0.324000 0.065897 -0.294996 -0.938538 0.179230
-0.151279 -0.324000 0.740663 0.000000 -1.000000 0.000000
-0.151058 -0.324000 0.746770 0.000000 -1.000000 0.000000
-0.152545 -0.324000 0.786035 0.000000 -1.000000 0.000000
-0.149617 -0.319576 -0.818100 0.000000 0.000000 -1.000000
-0.153202 -0.319822 -0.735579 0.000000 -0.342020 0.939693
-0.139997 -0.319229 -0.555985 -0.867622 0.009208 -0.497140
-0.143775 -0.321184 -0.537884 -0.952129 -0.305695 0.000034
-0.143775 -0.321183 -0.496639 -0.952147 -0.305640 0.000000
-0.143775 -0.321183 -0.455394 -0.952147 -0.305640 0.000000
-0.142232 -0.323183 -0.044619 -0.751741 -0.443459 -0.488087
-0.143775 -0.321183 -0.015468 -0.952147 -0.305640 0.000000
-0.143775 -0.321183 0.022340 -0.952147 -0.305640 0.000000
-0.139056 -0.319844 0.063301 -0.831463 -0.002472 0.555574
-0.149224 -0.319822 0.735579 0.000000 -0.342020 -0.939693
-0.153221 -0.319287 0.818100 0.000000 0.000000 1.000000
-0.149620 -0.280502 -0.818100 0.000000 0.000000 -1.000000
-0.149136 -0.249889 -0.817522 -0.000004 0.173613 -0.984814
-0.150528 -0.280122 -0.721130 0.000000 -0.342023 0.939692
-0.139319 -0.279925 -0.557098 -0.845358 0.002518 -0.534194
-0.143775 -0.282305 -0.535229 -1.000000 0.000000 0.000000
-0.143775 -0.282304 -0.497121 -1.000000 0.000000 0.000000
-0.143775 -0.282299 -0.455549 -1.000000 0.000000 0.000000
-0.141755 -0.250744 -0.058269 -0.689075 -0.284414 -0.666546
-0.140592 -0.281468 -0.049494 -0.686367 -0.223090 -0.692193
-0.143775 -0.282305 -0.015592 -1.000000 0.000000 0.000000
-0.143775 -0.282305 0.022519 -1.000000 0.000000 0.000000
-0.138838 -0.281091 0.063799 -0.831463 -0.002472 0.555574
-0.150537 -0.280122 0.721130 0.000000 -0.342023 -0.939692
-0.153222 -0.280246 0.818100 0.000000 0.000000 1.000000
-0.151502 -0.241512 -0.816045 0.000006 0.173612 -0.984814
-0.151839 -0.240114 -0.706024 0.000000 -0.656777 0.754085
-0.149924 -0.234007 -0.697303 -0.000001 -0.819148 0.573582
-0.141230 -0.241399 -0.554103 -0.913224 0.016819 -0.407111
-0.143775 -0.242803 -0.536025 -1.000000 0.000000 0.000000
-0.143775 -0.242803 -0.497611 -1.000000 0.000000 0.000000
-0.143775 -0.242802 -0.455705 -1.000000 0.000000 0.000000
-0.141459 -0.214038 -0.416692 -0.683170 -0.449252 0.575719
-0.142100 -0.239867 -0.063686 -0.685201 -0.341981 -0.643077
-0.143775 -0.242804 -0.057619 -1.000000 0.000000 0.000000
-0.143775 -0.242802 -0.015711 -1.000000 0.000000 0.000000
-0.143775 -0.242803 0.022700 -1.000000 0.000000 0.000000
-0.139054 -0.241115 0.063654 -0.836157 -0.002523 0.548484
-0.151860 -0.235127 0.698902 0.000000 -0.819142 -0.573591
-0.151838 -0.240114 0.706024 0.000000 -0.656762 -0.754098
-0.151502 -0.241512 0.816045 -0.000000 0.173666 0.984805
-0.152034 -0.203414 -0.803692 -0.000003 0.342018 -0.939694
-0.152732 -0.199331 -0.674017 -0.684259 -0.220543 0.695090
-0.140544 -0.200825 -0.555219 -0.889793 0.008903 -0.456278
-0.143775 -0.202664 -0.536833 -1.000000 0.000000 0.000000
-0.143775 -0.202663 -0.494589 -1.000000 0.000000 0.000000
-0.143775 -0.202662 -0.455865 -1.000000 0.000000 0.000000
-0.143775 -0.202660 -0.417145 -1.000000 0.000000 0.000000
-0.142266 -0.170534 -0.378013 -0.681948 -0.544585 0.488237
-0.140043 -0.185268 -0.099910 0.004375 -0.735154 -0.677886
-0.139712 -0.199812 -0.088144 0.003420 -0.602648 -0.798000
-0.143775 -0.202662 -0.058079 -1.000000 0.000000 0.000000
-0.143775 -0.202663 -0.015837 -1.000000 0.000000 0.000000
-0.143775 -0.202664 0.022884 -1.000000 0.000000 0.000000
-0.139275 -0.200113 0.063505 -0.844173 -0.002612 0.536064
-0.152876 -0.201553 0.682962 0.000000 -0.266373 -0.963870
-0.151225 -0.200730 0.802715 -0.000002 0.342026 0.939690
-0.150545 -0.162363 -0.788751 0.000002 0.342020 -0.939693
-0.153760 -0.134565 -0.778092 -0.000000 0.388599 -0.921407
-0.152405 -0.163802 -0.662250 0.000564 -0.376264 0.926512
-0.150332 -0.152372 -0.657470 0.000543 -0.386782 0.922171
-0.141478 -0.162653 -0.553582 -0.933370 0.002813 -0.358905
-0.143775 -0.163195 -0.537313 -1.000000 0.000000 0.000000
-0.143775 -0.161096 -0.494614 -1.000000 0.000000 0.000000
-0.143775 -0.161869 -0.456027 -1.000000 0.000000 0.000000
-0.143775 -0.161863 -0.416998 -1.000000 0.000000 0.000000
-0.143775 -0.161870 -0.377954 -1.000000 0.000000 0.000000
-0.142363 -0.142287 -0.336193 -0.681837 -0.662019 0.311174
-0.141884 -0.127560 -0.293594 -0.681650 -0.716906 0.146283
-0.140109 -0.124116 -0.218876 -0.683485 -0.721329 -0.111949
-0.139218 -0.134098 -0.178997 0.005664 -0.932458 -0.361235
-0.140441 -0.154123 -0.138355 0.005127 -0.850198 -0.526438
-0.140375 -0.159391 -0.129846 -0.681905 -0.621877 -0.385064
-0.143775 -0.161865 -0.097594 -1.000000 0.000000 0.000000
-0.143775 -0.162009 -0.053563 -1.000000 0.000000 0.000000
-0.143775 -0.161229 -0.013880 -1.000000 0.000000 0.000000
-0.143775 -0.161381 0.022184 -1.000000 0.000000 0.000000
-0.140174 -0.159753 0.062208 -0.453129 -0.007720 0.891412
-0.150698 -0.142587 0.661780 -0.000822 -0.389243 -0.921135
-0.150061 -0.163064 0.670127 0.000410 -0.356285 -0.934377
-0.151011 -0.140223 0.780478 -0.000005 0.388600 0.921407
-0.153310 -0.159498 0.787708 0.000004 0.342027 0.939690
-0.148927 -0.123637 -0.773483 0.000005 0.388598 -0.921407
-0.152082 -0.120783 -0.643144 -0.000474 -0.468770 0.883320
-0.139955 -0.121777 -0.556123 -0.862159 0.000639 -0.506637
-0.143775 -0.122033 -0.535465 -1.000000 0.000000 0.000000
-0.143775 -0.121506 -0.497713 -1.000000 0.000000 0.000000
-0.143775 -0.120403 -0.456199 -1.000000 0.000000 0.000000
-0.143775 -0.120409 -0.416836 -1.000000 0.000000 0.000000
-0.143775 -0.120407 -0.377483 -1.000000 0.000000 0.000000
-0.143775 -0.120409 -0.334549 -1.000000 0.000000 0.000000
-0.143775 -0.120410 -0.295191 -1.000000 0.000000 0.000000
-0.141079 -0.122348 -0.253813 -0.682496 -0.730676 0.017655
-0.143775 -0.120407 -0.216472 -1.000000 0.000000 0.000000
-0.143775 -0.120411 -0.177109 -1.000000 0.000000 0.000000
-0.143775 -0.120407 -0.137756 -1.000000 0.000000 0.000000
-0.143775 -0.120409 -0.094817 -1.000000 0.000000 0.000000
-0.143775 -0.120731 -0.056403 -1.000000 0.000000 0.000000
-0.143775 -0.121080 -0.014950 -1.000000 0.000000 0.000000
-0.143775 -0.121649 0.024038 -1.000000 0.000000 0.000000
-0.139702 -0.121106 0.063218 -0.857950 -0.000776 0.513733
-0.151386 -0.119150 0.650399 0.000567 -0.447711 -0.894178
-0.149670 -0.119361 0.771680 0.000001 0.388596 0.921408
-0.151378 -0.081588 -0.754044 0.000002 0.478687 -0.877986
-0.152381 -0.050423 -0.737052 0.000396 0.503391 -0.864059
-0.149983 -0.081772 -0.620935 0.009420 -0.532479 0.846391
-0.152097 -0.076127 -0.617214 -0.001203 -0.558458 0.829532
-0.139027 -0.081146 -0.557651 -0.862160 0.000640 -0.506636
-0.143775 -0.082859 -0.536964 -1.000000 0.000000 0.000000
-0.143775 -0.080416 -0.496989 -1.000000 0.000000 0.000000
-0.143775 -0.083272 -0.453711 -1.000000 0.000000 0.000000
-0.143775 -0.082502 -0.416337 -1.000000 0.000000 0.000000
-0.143775 -0.082506 -0.376689 -1.000000 0.000000 0.000000
-0.143775 -0.082505 -0.337038 -1.000000 0.000000 0.000000
-0.143775 -0.082505 -0.297385 -1.000000 0.000000 0.000000
-0.143775 -0.082503 -0.257732 -1.000000 0.000000 0.000000
-0.143775 -0.082506 -0.218081 -1.000000 0.000000 0.000000
-0.143775 -0.082508 -0.174821 -1.000000 0.000000 0.000000
-0.143775 -0.082508 -0.135171 -1.000000 0.000000 0.000000
-0.143775 -0.080922 -0.095217 -1.000000 0.000000 0.000000
-0.143775 -0.081869 -0.053859 -1.000000 0.000000 0.000000
-0.143775 -0.082677 -0.014088 -1.000000 0.000000 0.000000
-0.143775 -0.082827 0.022697 -1.000000 0.000000 0.000000
-0.139771 -0.083091 0.062996 -0.866434 0.002080 0.499287
-0.150606 -0.070076 0.621149 -0.000227 -0.564899 -0.825160
-0.150679 -0.079056 0.626885 0.000461 -0.534660 -0.845067
-0.151208 -0.056132 0.740165 0.000002 0.478683 0.877988
-0.151382 -0.081587 0.754044 0.000002 0.478691 0.877984
-0.149995 -0.039036 -0.729448 -0.000001 0.564023 -0.825759
-0.152968 -0.043571 -0.590120 -0.371079 -0.685289 0.626641
-0.151163 -0.034820 -0.577906 -0.598267 -0.623248 0.503626
-0.144288 -0.021533 -0.537694 -0.988277 -0.112130 0.103615
-0.143775 -0.041587 -0.492032 -1.000000 0.000000 0.000000
-0.143775 -0.043892 -0.456476 -1.000000 0.000000 0.000000
-0.143775 -0.039725 -0.416176 -1.000000 0.000000 0.000000
-0.143775 -0.039723 -0.376193 -1.000000 0.000000 0.000000
-0.143775 -0.039727 -0.336213 -1.000000 0.000000 0.000000
-0.143775 -0.039720 -0.296226 -1.000000 0.000000 0.000000
-0.143775 -0.039723 -0.256245 -1.000000 0.000000 0.000000
-0.143775 -0.039726 -0.216261 -1.000000 0.000000 0.000000
-0.143775 -0.039727 -0.176279 -1.000000 0.000000 0.000000
-0.143775 -0.039727 -0.136297 -1.000000 0.000000 0.000000
-0.143775 -0.041676 -0.096285 -1.000000 0.000000 0.000000
-0.143775 -0.041783 -0.057183 -1.000000 0.000000 0.000000
-0.143775 -0.040711 -0.016587 -1.000000 0.000000 0.000000
-0.143775 -0.039154 0.026353 -1.000000 0.000000 0.000000
-0.140117 -0.040385 0.062288 -0.924602 -0.012896 0.380717
-0.151008 -0.021153 0.581540 -0.000572 -0.691744 -0.722143
-0.152711 -0.042339 0.600232 -0.000382 -0.629054 -0.777361
-0.153641 -0.039003 0.729426 0.000002 0.564010 0.825768
-0.151300 -0.001458 -0.703115 0.000002 0.643677 -0.765298
-0.149638 0.004707 -0.697929 -0.000003 0.643678 -0.765297
-0.152233 -0.003983 -0.544022 -0.720587 -0.518202 0.460675
-0.150350 -0.000341 -0.535731 -0.823490 -0.426719 0.373865
-0.150277 0.030430 -0.496018 -0.822487 -0.464243 0.328625
-0.143775 -0.002349 -0.457017 -1.000000 0.000000 0.000000
-0.143775 -0.001196 -0.417055 -1.000000 0.000000 0.000000
-0.143775 -0.000030 -0.376690 -1.000000 0.000000 0.000000
-0.143775 -0.000607 -0.335090 -1.000000 0.000000 0.000000
-0.143775 -0.000604 -0.294805 -1.000000 0.000000 0.000000
-0.143775 -0.000606 -0.254519 -1.000000 0.000000 0.000000
-0.143775 -0.000609 -0.217895 -1.000000 0.000000 0.000000
-0.143775 -0.000959 -0.176964 -1.000000 0.000000 0.000000
-0.143775 0.000241 -0.134222 -1.000000 0.000000 0.000000
-0.143775 -0.002086 -0.094062 -1.000000 0.000000 0.000000
-0.143775 -0.002280 -0.048667 -1.000000 0.000000 0.000000
-0.143775 -0.000154 -0.013649 -1.000000 0.000000 0.000000
-0.143775 -0.002161 0.023165 -1.000000 0.000000 0.000000
-0.139873 0.002446 0.062462 -0.873869 0.001988 0.486157
-0.150715 0.016773 0.541519 0.000857 -0.750171 -0.661243
-0.153221 0.000555 0.559914 0.000807 -0.749964 -0.661478
-0.152564 -0.000004 0.701893 0.000003 0.643693 0.765284
-0.151300 -0.001458 0.703116 0.000002 0.643686 0.765289
-0.151815 0.036971 -0.670354 0.000131 0.709605 -0.704599
-0.149741 0.049056 -0.657927 0.000001 0.716931 -0.697144
-0.152641 0.036109 -0.493910 -0.721773 -0.555497 0.412876
-0.149517 0.053149 -0.457916 -0.822492 -0.501100 0.269084
-0.150865 0.075988 -0.415922 -0.822481 -0.530384 0.205471
-0.143896 0.073385 -0.374625 -0.995660 -0.091289 0.018103
-0.143775 0.037761 -0.334408 -1.000000 0.000000 0.000000
-0.143775 0.040721 -0.293491 -1.000000 0.000000 0.000000
-0.143775 0.037021 -0.254726 -1.000000 0.000000 0.000000
-0.143775 0.038350 -0.217543 -1.000000 0.000000 0.000000
-0.143775 0.039551 -0.178009 -1.000000 0.000000 0.000000
-0.143775 0.037798 -0.136394 -1.000000 0.000000 0.000000
-0.143775 0.038825 -0.095445 -1.000000 0.000000 0.000000
-0.143775 0.040673 -0.057430 -1.000000 0.000000 0.000000
-0.143775 0.038968 -0.015523 -1.000000 0.000000 0.000000
-0.143775 0.039022 0.025036 -1.000000 0.000000 0.000000
-0.139749 0.040911 0.062478 -0.923135 -0.013376 0.384244
-0.149323 0.070829 0.460535 0.000680 -0.877484 -0.479605
-0.150234 0.050380 0.496294 0.000777 -0.826066 -0.563573
-0.152884 0.040969 0.509716 0.000775 -0.818870 -0.573978
-0.151516 0.045601 0.661480 0.000000 0.716920 0.697155
-0.152823 0.040924 0.666289 -0.000001 0.716922 0.697154
-0.150851 0.076606 -0.629803 0.000841 0.679697 -0.733493
-0.152350 0.095066 -0.616768 -0.000221 0.489014 -0.872276
-0.152375 0.076404 -0.420892 -0.746732 -0.607546 0.270700
-0.153017 0.078777 -0.417338 -0.696505 -0.661588 0.277819
-0.149303 0.088318 -0.377665 -0.822089 -0.544483 0.166457
-0.149611 0.098809 -0.337776 -0.822483 -0.551612 0.138731
-0.148983 0.104391 -0.296826 -0.822483 -0.564478 0.069901
-0.150749 0.110673 -0.257971 -0.815708 -0.577237 0.037665
-0.148981 0.108802 -0.213495 -0.830290 -0.557308 0.005124
-0.149462 0.109785 -0.177068 -0.784902 -0.619584 -0.006625
-0.150050 0.110153 -0.135050 -0.725848 -0.687560 -0.020147
-0.150016 0.110137 -0.094387 -0.720652 -0.693192 0.012028
-0.150233 0.110629 -0.054932 -0.752648 -0.658310 0.012224
-0.149272 0.109364 -0.017824 -0.809555 -0.586803 0.016838
-0.149725 0.109804 0.024982 -0.828945 -0.559299 -0.005878
-0.150575 0.114753 0.064710 -0.620509 -0.708998 0.335098
-0.151005 0.115289 0.325414 0.000213 -0.986130 -0.165975
-0.152986 0.105854 0.370100 0.000400 -0.961639 -0.274318
-0.150927 0.090805 0.416299 0.000555 -0.925268 -0.379313
-0.150061 0.080935 0.440112 -0.000739 -0.915888 -0.401432
-0.151522 0.088916 0.620690 -0.001676 0.537538 0.843238
-0.153242 0.080584 0.626365 -0.002016 0.637296 0.770617
-0.150123 0.119629 -0.608718 0.001055 0.161627 -0.986851
-0.153763 0.116841 0.063633 -0.587497 -0.634382 0.502401
-0.153655 0.121500 0.105543 0.000000 -1.000000 0.000000
-0.152553 0.121500 0.145112 0.000000 -1.000000 0.000000
-0.151471 0.121500 0.184120 0.000000 -1.000000 0.000000
-0.150286 0.121500 0.226819 0.000000 -1.000000 0.000000
-0.152983 0.120955 0.264946 0.000000 -0.998456 -0.055542
-0.151795 0.118777 0.303301 -0.000226 -0.996258 -0.086429
-0.150123 0.119629 0.608719 0.001055 0.161609 0.986854
-0.149221 0.159111 -0.607500 0.000000 0.000000 -1.000000
-0.152977 0.158973 0.607500 0.000000 0.000000 1.000000
-0.149221 0.198508 -0.607500 0.000000 0.000000 -1.000000
-0.152978 0.198337 0.607500 0.000000 0.000000 1.000000
-0.149221 0.240937 -0.607500 0.000000 0.000000 -1.000000
-0.152978 0.240729 0.607500 0.000000 0.000000 1.000000
-0.149221 0.280336 -0.607500 0.000000 0.000000 -1.000000
-0.152978 0.280092 0.607500 0.000000 0.000000 1.000000
-0.149221 0.319734 -0.607500 0.000000 0.000000 -1.000000
-0.152495 0.324000 -0.573574 0.000000 1.000000 0.000000
-0.151477 0.324000 -0.536844 0.000000 1.000000 0.000000
-0.150329 0.324000 -0.495464 0.000000 1.000000 0.000000
-0.152975 0.324000 -0.454708 0.000000 1.000000 0.000000
-0.151833 0.324000 -0.414561 0.000000 1.000000 0.000000
-0.150707 0.324000 -0.375008 0.000000 1.000000 0.000000
-0.153292 0.324000 -0.336038 0.000000 1.000000 0.000000
-0.152172 0.324000 -0.297636 0.000000 1.000000 0.000000
-0.150932 0.324000 -0.255100 0.000000 1.000000 0.000000
-0.153458 0.324000 -0.217867 0.000000 1.000000 0.000000
-0.152226 0.324000 -0.176616 0.000000 1.000000 0.000000
-0.151014 0.324000 -0.136021 0.000000 1.000000 0.000000
-0.153346 0.324000 -0.096068 0.000000 1.000000 0.000000
-0.152145 0.324000 -0.056741 0.000000 1.000000 0.000000
-0.150962 0.324000 -0.018026 0.000000 1.000000 0.000000
-0.153109 0.324000 0.024292 0.000000 1.000000 0.000000
-0.151809 0.324000 0.065890 0.000000 1.000000 0.000000
-0.150657 0.324000 0.102729 0.000000 1.000000 0.000000
-0.152756 0.324000 0.143011 0.000000 1.000000 0.000000
-0.151489 0.324000 0.182625 0.000000 1.000000 0.000000
-0.153420 0.324000 0.225449 0.000000 1.000000 0.000000
-0.152170 0.324000 0.263714 0.000000 1.000000 0.000000
-0.150819 0.324000 0.305092 0.000000 1.000000 0.000000
-0.152828 0.324000 0.342075 0.000000 1.000000 0.000000
-0.151493 0.324000 0.382078 0.000000 1.000000 0.000000
-0.153223 0.324000 0.424929 0.000000 1.000000 0.000000
-0.151909 0.324000 0.463504 0.000000 1.000000 0.000000
-0.153604 0.324000 0.504838 0.000000 1.000000 0.000000
-0.152309 0.324000 0.542062 0.000000 1.000000 0.000000
-0.152978 0.319456 0.607500 0.000000 0.000000 1.000000
-0.110858 -0.324000 -0.816255 0.000000 -0.187809 -0.982206
-0.110085 -0.324000 -0.776225 0.000000 -1.000000 0.000000
-0.110235 -0.324000 -0.737602 0.000000 -0.828235 0.560381
-0.113785 -0.324000 -0.568289 0.000061 -0.927028 -0.374991
-0.113126 -0.324000 -0.536845 0.000000 -1.000000 0.000000
-0.112267 -0.324000 -0.495464 0.000000 -1.000000 0.000000
-0.111424 -0.324000 -0.454701 0.000000 -1.000000 0.000000
-0.113378 -0.324000 -0.043758 0.000000 -0.895541 -0.444978
-0.112692 -0.324000 -0.013750 0.000000 -1.000000 0.000000
-0.111821 -0.324000 0.024302 0.000000 -1.000000 0.000000
-0.110877 -0.324000 0.065893 0.000000 -1.000000 0.000000
-0.113092 -0.324000 0.740663 0.000000 -1.000000 0.000000
-0.112927 -0.324000 0.746770 0.000000 -1.000000 0.000000
-0.111867 -0.324000 0.786035 0.000000 -1.000000 0.000000
-0.109574 -0.319977 -0.818100 0.000000 0.000000 -1.000000
-0.113409 -0.319822 -0.735579 0.000000 -0.342020 0.939693
-0.111663 -0.321718 -0.571050 0.000000 -0.384823 -0.922990
-0.111145 -0.319172 -0.449238 0.051371 -0.131626 0.989967
-0.111388 -0.323162 -0.044604 0.000000 -0.648436 -0.761269
-0.110695 -0.322102 0.076950 0.000000 -0.470204 0.882558
-0.109431 -0.319822 0.735579 0.000000 -0.342020 -0.939693
-0.113250 -0.319686 0.818100 0.000000 0.000000 1.000000
-0.109577 -0.280509 -0.818100 0.000000 0.000000 -1.000000
-0.109033 -0.249595 -0.817470 0.000001 0.173609 -0.984815
-0.110386 -0.280122 -0.721130 0.000000 -0.342023 0.939692
-0.110137 -0.283707 -0.571050 0.000000 0.000000 -1.000000
-0.112685 -0.280057 -0.444367 0.005555 -0.266633 0.963782
-0.110251 -0.250815 -0.058316 -0.002343 -0.367118 -0.930171
-0.109360 -0.281278 -0.049367 0.005481 -0.251696 -0.967791
-0.108907 -0.282764 0.076950 -0.017573 -0.000481 0.999845
-0.110395 -0.280122 0.721130 0.000000 -0.342023 -0.939692
-0.113252 -0.280252 0.818100 0.000000 0.000000 1.000000
-0.111423 -0.241134 -0.815978 -0.000004 0.173610 -0.984815
-0.111349 -0.240114 -0.706024 0.000000 -0.656777 0.754085
-0.113611 -0.234243 -0.697639 0.000002 -0.819149 0.573581
-0.113692 -0.239563 -0.571050 -0.017835 0.000421 -0.999841
-0.113765 -0.239184 -0.430180 0.003337 -0.445734 0.895159
-0.110456 -0.214017 -0.416712 -0.002073 -0.584695 0.811251
-0.110528 -0.239765 -0.063619 0.003337 -0.445734 -0.895159
-0.113692 -0.240952 0.076950 -0.034142 -0.001261 0.999416
-0.111979 -0.235127 0.698902 0.000000 -0.819142 -0.573591
-0.111348 -0.240114 0.706024 0.000000 -0.656762 -0.754098
-0.111424 -0.241133 0.815978 0.000006 0.173660 0.984806
-0.111692 -0.202657 -0.803416 -0.000004 0.342014 -0.939695
-0.111259 -0.200545 -0.674373 0.000310 -0.271856 0.962338
-0.113244 -0.199976 -0.571050 -0.170751 -0.030937 -0.984829
-0.113815 -0.202745 -0.408282 0.003413 -0.602647 0.798001
-0.111590 -0.169402 -0.376971 0.004382 -0.739006 0.673684
-0.111681 -0.185259 -0.099905 -0.003137 -0.715446 -0.698661
-0.111587 -0.199684 -0.088120 0.003418 -0.602647 -0.798000
-0.111588 -0.201997 0.076950 0.000000 0.000000 1.000000
-0.112108 -0.201566 0.682949 -0.000539 -0.268669 -0.963233
-0.110850 -0.199944 0.802429 0.000006 0.342029 0.939690
-0.109926 -0.161179 -0.788320 -0.000005 0.342022 -0.939692
-0.110095 -0.134347 -0.778000 0.000002 0.388598 -0.921407
-0.111623 -0.163386 -0.662072 0.001155 -0.372787 0.927916
-0.113075 -0.149599 -0.656329 -0.204228 -0.926767 -0.315268
-0.111769 -0.162946 -0.571050 0.000000 0.000000 -1.000000
-0.111162 -0.162778 -0.369399 -0.004006 -0.799351 0.600851
-0.111157 -0.142356 -0.336140 -0.004646 -0.907217 0.420639
-0.110792 -0.127395 -0.293724 0.005994 -0.982443 0.186468
-0.111838 -0.124027 -0.218430 0.005985 -0.982958 -0.183731
-0.110683 -0.134118 -0.178497 0.005664 -0.932457 -0.361236
-0.111950 -0.149913 -0.144876 0.005126 -0.850199 -0.526436
-0.111950 -0.159275 -0.129773 -0.000660 -0.836252 -0.548345
-0.113018 -0.162043 0.076950 -0.005013 -0.000179 0.999987
-0.109409 -0.142613 0.661754 -0.000814 -0.389243 -0.921135
-0.108947 -0.163051 0.670139 0.000403 -0.356280 -0.934379
-0.111181 -0.141576 0.781049 -0.000134 0.385268 0.922805
-0.113577 -0.161038 0.788269 -0.000005 0.342025 0.939691
-0.113664 -0.123211 -0.773304 0.000005 0.388593 -0.921409
-0.112111 -0.123836 -0.644743 -0.000455 -0.468745 0.883334
-0.110154 -0.120282 -0.571050 0.000000 0.000000 -1.000000
-0.109990 -0.123977 -0.275466 0.005985 -0.982958 0.183731
-0.110167 -0.122159 -0.253956 0.006095 -0.999982 -0.000001
-0.086019 -0.123989 -0.217790 0.005985 -0.982958 -0.183731
-0.110850 -0.121052 0.076950 0.000000 0.000000 1.000000
-0.109912 -0.119131 0.650415 0.000567 -0.447711 -0.894178
-0.110646 -0.119159 0.771595 0.000004 0.388598 0.921408
-0.111223 -0.082378 -0.754475 -0.000003 0.478691 -0.877984
-0.111971 -0.050914 -0.737320 0.000279 0.496156 -0.868233
-0.109079 -0.082018 -0.619914 0.005059 -0.700935 0.713207
-0.110581 -0.080058 -0.617969 0.003958 -0.738492 0.674250
-0.111394 -0.083704 -0.577497 0.005021 -0.600576 -0.799552
-0.113234 -0.079555 0.076950 -0.011007 -0.000167 0.999940
-0.110885 -0.070108 0.621160 -0.000230 -0.566439 -0.824104
-0.113476 -0.079032 0.626890 0.000461 -0.534662 -0.845066
-0.111115 -0.059075 0.741770 -0.000002 0.478687 0.877986
-0.113640 -0.079490 0.752900 0.000000 0.478686 0.877986
-0.109469 -0.039416 -0.729708 0.000002 0.564029 -0.825755
-0.113553 -0.043068 0.076950 -0.024576 -0.000852 0.999698
-0.113677 -0.021204 0.581559 -0.000572 -0.691743 -0.722144
-0.112434 -0.042386 0.600250 -0.000387 -0.627253 -0.778816
-0.113186 -0.039383 0.729686 -0.000002 0.564014 0.825765
-0.110383 -0.001473 -0.703128 0.000000 0.643674 -0.765300
-0.111768 0.004668 -0.697963 0.000002 0.643682 -0.765293
-0.110489 -0.002388 0.076950 0.000000 0.000000 1.000000
-0.112607 0.016840 0.541493 0.000858 -0.750492 -0.660879
-0.111744 -0.001105 0.561850 -0.002103 -0.738336 -0.674430
-0.110917 0.000182 0.701737 -0.000001 0.643690 0.765286
-0.110383 -0.001473 0.703128 0.000000 0.643693 0.765284
-0.110329 0.037341 -0.669974 0.000068 0.713363 -0.700795
-0.111842 0.049504 -0.657466 0.000001 0.716930 -0.697145
-0.112574 0.038815 0.076950 -0.015591 -0.000523 0.999878
-0.111737 0.070784 0.460670 0.000681 -0.877484 -0.479606
