ply
format ascii 1.0
comment SurfExtract output
element vertex 133
property float x
property float y
property float z
property float nx
property float ny
property float nz
end_header
-0.125500 -0.018241 0.000000 -1.000000 0.000358 0.000811
-0.125500 0.018241 -0.000000 -1.000000 -0.000358 -0.000811
-0.091120 -0.036750 -0.085829 -0.412465 0.839386 -0.353981
-0.116389 -0.036750 -0.046209 -0.322326 0.742403 -0.587319
-0.121030 -0.036750 -0.030933 -0.977160 -0.153909 0.146530
-0.125225 -0.036750 -0.000700 -0.976932 -0.144093 0.157613
-0.118754 -0.036750 0.039440 -0.976959 -0.144092 0.157446
-0.100773 -0.036750 0.074560 -0.960031 -0.152703 0.234568
-0.090696 -0.032075 -0.086545 -0.707107 0.000000 -0.707107
-0.115577 -0.031757 -0.048630 -0.933564 0.000000 -0.358412
-0.120783 -0.031787 -0.033463 -0.965926 0.000000 -0.258819
-0.125217 -0.032073 -0.005400 -0.998627 0.000000 -0.052376
-0.120501 -0.027926 0.034514 -0.965926 0.000000 0.258817
-0.100709 -0.032123 0.074783 -0.777152 0.000000 0.629313
-0.090696 0.007860 -0.086545 -0.707107 0.000000 -0.707107
-0.115577 0.007883 -0.048630 -0.933564 0.000000 -0.358412
-0.120569 0.008107 -0.034262 -0.965926 0.000000 -0.258818
-0.125448 0.008249 -0.000994 -0.999582 0.000000 -0.028921
-0.120503 0.006691 0.034508 -0.965925 0.000005 0.258821
-0.100709 0.007977 0.074783 -0.777152 0.000000 0.629313
-0.080529 -0.036750 -0.095712 -0.459452 0.829050 -0.318717
-0.085188 -0.036750 -0.080971 0.000000 -1.000000 0.000000
-0.085238 -0.036750 -0.041054 0.000000 -1.000000 0.000000
-0.080542 -0.036750 0.014220 -0.550831 -0.730302 -0.404035
-0.085121 -0.036750 0.039441 0.000000 -1.000000 0.000000
-0.085398 -0.036750 0.079381 0.000000 -1.000000 0.000000
-0.050549 -0.036750 0.114744 -0.534340 0.772816 0.342397
-0.080781 -0.031803 -0.095852 -0.629321 0.000000 -0.777145
-0.081527 -0.032189 -0.060611 0.807265 -0.003686 0.590178
-0.081036 -0.031817 -0.014289 -0.173635 0.000000 0.984810
-0.081036 -0.031817 0.014289 -0.173636 -0.000001 -0.984810
-0.085358 -0.032159 0.049282 0.500021 0.000001 0.866013
-0.085352 -0.031900 0.091889 -0.707107 0.000000 0.707107
-0.051255 -0.031765 0.114543 -0.432877 0.000000 0.901453
-0.080781 0.008214 -0.095852 -0.629321 0.000000 -0.777145
-0.080924 0.008199 -0.061341 0.766038 -0.000000 0.642796
-0.085079 0.007645 -0.015001 -0.173635 -0.000000 0.984810
-0.080878 0.007695 0.014261 -0.173635 -0.000001 -0.984810
-0.081415 0.008207 0.047005 0.500020 0.000000 0.866014
-0.085352 0.008239 0.091889 -0.707107 0.000000 0.707107
-0.051255 0.008204 0.114543 -0.432877 0.000000 0.901453
-0.045440 -0.036750 -0.116175 -0.000070 -0.152584 -0.988290
-0.045453 -0.036750 -0.080971 0.000000 -1.000000 0.000000
-0.045059 -0.036750 -0.041052 0.000000 -1.000000 0.000000
-0.045087 -0.036750 0.034048 0.000000 -1.000000 0.000000
-0.045277 -0.036750 0.039441 0.000000 -1.000000 0.000000
-0.045269 -0.036750 0.079382 0.000000 -1.000000 0.000000
-0.040876 -0.036750 0.118547 -0.393951 -0.583498 0.710164
-0.040748 -0.031967 -0.118684 -0.360816 0.000000 -0.932637
-0.031109 -0.032526 -0.085471 0.939693 0.000000 -0.342018
-0.040573 -0.031955 -0.036921 0.760424 -0.000001 0.649427
-0.043057 -0.032248 0.034013 0.760425 0.000000 -0.649426
-0.040575 -0.031952 0.036920 0.760424 -0.000001 -0.649426
-0.030687 -0.032284 0.084312 0.939694 -0.000000 0.342016
-0.045190 -0.031884 0.116898 -0.358406 0.000000 0.933566
-0.042375 0.008248 -0.118046 -0.364765 0.000000 -0.931099
-0.045063 0.036750 -0.085015 0.000000 1.000000 0.000000
-0.040759 0.007804 -0.036703 0.760424 -0.000000 0.649427
-0.043069 0.007434 0.033998 0.760426 -0.000000 -0.649424
-0.040760 0.007806 0.036703 0.760425 0.000001 -0.649425
-0.045090 0.036750 0.074560 0.000000 1.000000 0.000000
-0.045190 0.008235 0.116898 -0.358408 0.000000 0.933565
-0.005354 -0.036750 -0.120561 0.000000 -1.000000 0.000000
-0.005055 -0.036750 -0.070630 -0.000063 -0.915832 -0.401561
0.034244 -0.036750 -0.043255 -0.114353 -0.917987 0.379767
-0.005288 -0.036750 0.059124 0.000000 -1.000000 0.000000
-0.005429 -0.036750 0.104016 0.000000 -1.000000 0.000000
-0.005304 -0.036750 0.119494 0.000000 -1.000000 0.000000
-0.000001 -0.021529 -0.125500 0.000039 -0.000004 -1.000000
-0.000572 -0.032183 -0.125470 -0.052298 -0.000000 -0.998632
-0.000859 -0.031948 -0.071527 -0.058147 0.000000 -0.998308
0.031150 -0.032625 -0.045218 -0.522448 -0.000001 0.852671
-0.000994 -0.032767 0.054922 0.078442 0.000000 -0.996919
-0.003421 -0.031763 0.101394 0.058152 -0.000000 -0.998308
-0.005075 -0.031973 0.125234 -0.052375 0.000000 0.998628
0.000001 0.021529 -0.125500 -0.000039 0.000004 -1.000000
-0.000572 0.008212 -0.125470 -0.052298 -0.000000 -0.998632
-0.000792 0.007817 -0.071531 -0.058147 -0.000000 -0.998308
0.030781 0.008207 -0.045444 -0.522448 0.000001 0.852671
-0.000925 0.007880 0.054927 0.078442 0.000001 -0.996919
-0.000974 0.007971 0.101536 0.058154 -0.000001 -0.998308
-0.005075 0.008159 0.125234 -0.052375 0.000000 0.998628
0.034786 -0.036750 -0.116176 0.000000 -1.000000 0.000000
0.034968 -0.036750 -0.060536 0.000000 -1.000000 0.000000
0.036449 -0.036750 -0.041053 -0.432836 -0.679891 0.591947
0.043524 -0.036750 0.034049 -0.332927 -0.942750 -0.019531
0.038551 -0.036750 0.039442 -0.251999 -0.929452 -0.269473
0.037105 -0.036750 0.094477 -0.234813 -0.961531 -0.142548
0.034821 -0.036750 0.119493 0.000000 -1.000000 0.000000
0.034507 -0.032009 -0.120503 0.258821 0.000000 -0.965925
0.034689 -0.032228 -0.062482 0.499949 0.000001 -0.866055
0.034923 -0.031782 -0.042280 -0.649426 -0.000000 0.760425
0.043056 -0.032249 0.034014 -0.760424 -0.000001 -0.649427
0.039327 -0.031807 0.038381 -0.751285 0.001408 -0.659976
0.039133 -0.032038 0.093574 -0.396057 -0.000002 -0.918226
0.039258 -0.031857 0.119175 0.332531 0.000000 0.943092
0.034507 0.007825 -0.120503 0.258821 -0.000001 -0.965925
0.037711 0.008233 -0.060738 0.499953 0.000000 -0.866053
0.034970 0.007424 -0.042240 -0.649427 0.000001 0.760424
0.043069 0.007433 0.033999 -0.760425 0.000000 -0.649426
0.039019 0.008084 0.038741 -0.725494 0.005592 -0.688206
0.037029 0.008202 0.094482 -0.396053 0.000001 -0.918228
0.039258 0.007904 0.119175 0.332531 0.000000 0.943092
0.074738 -0.036750 -0.100533 0.463737 -0.602646 -0.649435
0.074953 -0.036750 -0.080971 0.000000 -1.000000 0.000000
0.074533 -0.036750 -0.043255 0.164317 -0.779450 0.604531
0.075026 -0.036750 -0.000700 0.000000 -1.000000 0.000000
0.074806 -0.036750 0.044168 0.000000 -1.000000 0.000000
0.074632 -0.036750 0.079382 0.000000 -1.000000 0.000000
0.074815 -0.032125 -0.100684 0.629313 0.000000 -0.777152
0.078926 -0.032077 -0.045568 0.500017 0.000001 0.866016
0.074569 -0.032441 -0.043052 0.500020 -0.000001 0.866014
0.077127 -0.031784 0.013599 -0.173635 -0.000000 0.984810
0.075258 -0.031945 0.043451 0.500022 -0.000002 -0.866013
0.078694 -0.032146 0.097542 0.993444 0.000000 0.114323
0.074815 0.008189 -0.100684 0.629313 0.000000 -0.777152
0.078978 0.008004 -0.045598 0.500020 -0.000001 0.866014
0.077696 0.007977 -0.044858 0.500019 0.000000 0.866014
0.074794 0.007815 0.013188 -0.173635 -0.000000 0.984810
0.076415 0.007949 0.044119 0.500019 -0.000000 -0.866014
0.078694 0.008235 0.097542 0.993444 0.000000 0.114323
0.114699 -0.036750 -0.050679 0.327942 0.767268 -0.551139
0.114511 -0.036750 -0.041054 0.000000 -1.000000 0.000000
0.114858 -0.036750 -0.000700 0.000000 -1.000000 0.000000
0.114615 -0.036750 0.039440 0.000000 -1.000000 0.000000
0.114851 -0.032090 -0.050521 0.930736 0.000000 -0.365691
0.118534 -0.031771 -0.040928 0.933563 0.000000 -0.358413
0.123892 -0.031813 0.018933 0.987689 0.000000 0.156432
0.119287 -0.031889 0.038967 0.946870 0.000000 0.321616
0.114851 0.007854 -0.050521 0.930736 0.000000 -0.365691
0.118534 0.008000 -0.040928 0.933563 0.000000 -0.358413
0.114998 0.036750 -0.005357 0.000000 1.000000 0.000000
0.119287 0.008030 0.038967 0.946870 0.000000 0.321616
