ply
format ascii 1.0
comment SurfExtract output
element vertex 112
property float x
property float y
property float z
property float nx
property float ny
property float nz
end_header
-0.031500 -0.087908 -0.084158 -0.178091 -0.000175 -0.984014
-0.031500 -0.112869 -0.048396 -0.892253 -0.215395 0.396850
-0.031500 -0.118058 -0.034016 0.716451 -0.283077 -0.637625
-0.031500 -0.118121 -0.002427 -1.000000 0.000000 0.000000
-0.031500 -0.112978 0.037872 -1.000000 0.000000 0.000000
-0.031500 -0.092865 0.077088 -1.000000 0.000000 0.000000
-0.031500 -0.078209 -0.094026 -0.160939 0.000095 -0.986964
-0.031500 -0.077957 -0.082547 -1.000000 0.000000 0.000000
-0.031500 -0.078443 -0.042215 -1.000000 0.000000 0.000000
-0.031500 -0.078099 -0.002427 -1.000000 0.000000 0.000000
-0.031500 -0.078294 0.037870 -1.000000 0.000000 0.000000
-0.031500 -0.077969 0.077087 -1.000000 0.000000 0.000000
-0.031500 -0.038055 -0.116626 0.663473 -0.716372 -0.215903
-0.031500 -0.038492 -0.082547 -1.000000 0.000000 0.000000
-0.031500 -0.038170 -0.042216 -1.000000 0.000000 0.000000
-0.031500 -0.041968 -0.002426 -0.818550 0.572330 -0.049136
-0.031500 -0.037999 0.037870 -1.000000 0.000000 0.000000
-0.031500 -0.037938 0.077088 -1.000000 0.000000 0.000000
-0.031500 -0.032927 0.117588 -1.000000 0.000000 0.000000
-0.031500 0.001730 -0.122093 -0.125911 0.000235 -0.992041
-0.031500 0.001617 -0.082548 -1.000000 0.000000 0.000000
-0.031500 0.002104 -0.042216 -0.902212 -0.000182 0.431294
-0.031500 0.021775 0.035864 -0.911101 -0.310588 -0.270978
-0.031500 -0.001174 0.041871 -0.698954 0.127632 -0.703686
-0.031500 0.002094 0.077089 -1.000000 0.000000 0.000000
-0.031500 0.001887 0.117589 -1.000000 0.000000 0.000000
-0.031500 0.042043 -0.114826 -0.133479 -0.000162 -0.991052
-0.031500 0.042136 -0.079349 -1.000000 0.000000 0.000000
-0.031500 0.042046 -0.038084 -1.000000 0.000000 0.000000
-0.031500 0.041967 -0.002426 -0.818543 -0.572339 -0.049151
-0.031500 0.042081 0.037869 -1.000000 0.000000 0.000000
-0.031500 0.042127 0.077089 -1.000000 0.000000 0.000000
-0.031500 0.037408 0.117060 -0.667364 0.349977 0.657375
-0.031500 0.078868 -0.094026 0.861025 0.435338 -0.262901
-0.031500 0.082021 -0.079349 -1.000000 0.000000 0.000000
-0.031500 0.082005 -0.038084 -1.000000 0.000000 0.000000
-0.031500 0.081949 0.001107 -1.000000 0.000000 0.000000
-0.031500 0.082009 0.039860 -1.000000 0.000000 0.000000
-0.031500 0.082123 0.079570 -1.000000 0.000000 0.000000
-0.031500 0.118058 -0.034016 0.716447 0.283066 -0.637635
-0.031500 0.121976 -0.000065 -1.000000 0.000000 0.000000
-0.031298 -0.122860 -0.003057 -0.788134 -0.614233 0.039527
-0.031498 -0.122860 0.001622 -0.621298 -0.491048 -0.610623
-0.027093 -0.088399 -0.085328 -0.000003 -0.723739 -0.690074
-0.026624 -0.112865 -0.048646 0.000002 -0.928384 -0.371623
-0.031369 -0.118122 -0.033799 -0.787939 -0.603522 -0.122120
-0.031245 -0.122777 0.006727 -0.788158 -0.608550 0.092055
-0.030595 -0.115801 0.041310 0.381942 -0.881253 0.278411
-0.028844 -0.092903 0.080604 -0.004685 -0.755616 0.654998
-0.026592 -0.078338 -0.094688 0.000001 -0.654905 -0.755711
0.001500 -0.078316 -0.078524 1.000000 0.000000 0.000000
-0.022500 -0.058028 -0.013152 0.921228 0.389023 0.000021
-0.022500 -0.058029 0.001604 1.000000 0.000000 0.000000
-0.021646 -0.043054 0.041696 0.000001 0.682641 -0.730754
-0.027374 -0.081493 0.091954 0.000003 -0.654904 0.755712
-0.026672 -0.037915 -0.116889 0.000003 -0.327129 -0.944980
-0.022500 -0.038082 -0.043101 1.000000 0.000000 0.000000
-0.028221 -0.037865 -0.018143 0.673573 0.733715 -0.089230
-0.031052 -0.041861 -0.000906 -0.116497 0.971041 0.208585
-0.027060 -0.018271 0.037690 -0.000000 0.464704 -0.885466
-0.027220 -0.037880 0.116901 0.000002 -0.327127 0.944981
-0.031118 -0.032871 0.118450 -0.217231 -0.269061 0.938305
-0.012473 -0.000002 -0.123000 -0.000816 0.002786 -0.999996
-0.026724 0.001875 -0.122911 0.000002 0.047583 -0.998867
-0.022500 0.001643 -0.058285 1.000000 0.000000 0.000000
-0.031022 0.002103 -0.041830 -0.331617 -0.088580 0.939247
-0.026648 0.021800 0.035838 -0.000001 -0.464643 -0.885498
-0.027012 0.002114 0.041864 0.000000 0.000000 -1.000000
0.001500 0.002090 0.096517 1.000000 0.000000 0.000000
-0.031495 0.001860 0.122911 -0.703673 0.040446 0.709372
-0.029272 0.042135 -0.115428 -0.000000 0.327126 -0.944981
-0.022500 0.041282 -0.043101 0.822235 -0.246220 0.513132
-0.031391 0.037617 -0.018575 -0.552079 -0.677346 0.486221
-0.031048 0.041862 -0.000915 -0.112566 -0.971596 0.208158
-0.022500 0.042101 0.037007 1.000000 0.000000 0.000000
-0.031448 0.041977 0.115483 -0.636971 0.300151 0.710055
-0.031149 0.037188 0.117141 -0.259846 0.378087 0.888555
-0.028135 0.080282 -0.093003 0.000000 0.654906 -0.755710
-0.030001 0.092082 -0.081467 0.000007 0.723649 -0.690168
-0.030619 0.115787 -0.041351 0.384655 0.883165 -0.268441
0.001500 0.087118 0.036380 1.000000 0.000000 0.000000
-0.030832 0.097117 0.075259 -0.005726 0.784808 0.619713
-0.030905 0.082043 0.091477 -0.009971 0.658377 0.752622
-0.031100 0.117290 -0.036638 -0.786905 0.604635 -0.123277
-0.031380 0.122131 0.013497 -0.789139 0.607219 0.092441
-0.028992 0.117162 0.037075 -0.000000 0.959510 0.281676
0.008734 -0.092864 -0.003372 0.000000 -1.000000 0.000000
0.008670 -0.092864 0.001474 0.000000 -1.000000 0.000000
0.009237 -0.083237 0.041250 -0.001662 -0.905984 0.423309
0.009298 -0.077967 -0.050540 0.000001 -0.856783 -0.515678
0.013470 -0.082456 -0.042937 -0.020742 -0.886511 -0.462243
0.010164 -0.077943 -0.002560 0.414875 0.852523 -0.317937
0.008567 -0.080250 0.046746 -0.000002 -0.856782 0.515679
0.008976 -0.048085 0.079594 -0.003758 -0.527054 0.849823
0.011804 -0.037873 -0.084874 0.000002 -0.370106 -0.928989
0.013312 -0.041733 -0.082982 0.000003 -0.468417 -0.883508
0.013044 -0.039961 0.066961 0.485480 0.705585 -0.516196
0.008792 -0.038049 0.084803 -0.000002 -0.370107 0.928989
0.013307 0.002071 -0.092888 -0.000002 0.054115 -0.998535
0.011421 0.001679 -0.077900 0.500639 -0.035409 0.864932
0.013480 0.012086 0.076974 0.000002 -0.118267 -0.992982
0.012926 0.001682 0.077863 0.000000 0.000000 -1.000000
0.012913 0.041261 -0.083232 -0.000002 0.468375 -0.883530
0.013313 0.041733 -0.082982 -0.000003 0.468375 -0.883530
0.010491 0.067105 -0.039562 -0.000000 -0.845595 0.533824
0.013382 0.071733 0.030301 -0.000001 -0.926698 -0.375808
0.013323 0.041234 0.066105 0.483653 -0.717129 -0.501802
0.009060 0.042012 0.082834 0.000001 0.468379 0.883528
0.013298 0.078796 -0.049164 -0.000002 0.856870 -0.515533
0.012255 0.077449 -0.008102 -0.000003 -0.996046 0.088840
0.012795 0.077907 -0.000311 0.412472 -0.844584 -0.341385
0.010860 0.082096 0.043680 0.008620 0.884715 0.466052
