ply
format ascii 1.0
comment SurfExtract output
element vertex 182
property float x
property float y
property float z
property float nx
property float ny
property float nz
end_header
-0.138880 -0.036750 -0.082338 -0.277780 0.883568 -0.377022
-0.153115 -0.036750 -0.052029 -0.248137 0.797528 -0.549888
-0.157043 -0.036750 -0.037952 -0.239650 0.701050 -0.671638
-0.161666 -0.036750 0.002994 -0.981286 -0.112561 0.156229
-0.157107 -0.036750 0.038559 -0.879364 -0.445757 0.167389
-0.139125 -0.036750 0.082644 -0.231878 0.870480 0.434163
-0.137002 -0.031841 -0.086072 -0.838680 0.000000 -0.544625
-0.152043 -0.032041 -0.055344 -0.933570 0.000000 -0.358395
-0.157026 -0.032258 -0.039032 -0.965922 0.000000 -0.258835
-0.162000 -0.023544 0.000000 -1.000000 0.000367 0.000821
-0.157026 -0.032258 0.039032 -0.965923 0.000000 0.258829
-0.141697 -0.032158 0.078250 -0.891017 0.000000 0.453969
-0.137002 0.008171 -0.086072 -0.838680 0.000000 -0.544625
-0.152043 0.007937 -0.055344 -0.933570 0.000000 -0.358395
-0.157026 0.008140 -0.039032 -0.965923 0.000000 -0.258829
-0.162000 0.023544 -0.000000 -1.000000 -0.000367 -0.000821
-0.157026 0.008140 0.039032 -0.965923 0.000000 0.258829
-0.141356 0.008245 0.078919 -0.891018 0.000000 0.453968
-0.104695 -0.036750 -0.122997 -0.368339 0.894199 -0.254431
-0.121424 -0.036750 -0.107010 -0.319686 0.901079 -0.293014
-0.121305 -0.036750 -0.077334 0.000000 -1.000000 0.000000
-0.121296 -0.036750 -0.037026 0.000000 -1.000000 0.000000
-0.121482 -0.036750 0.022302 0.000000 -1.000000 0.000000
-0.121769 -0.036750 0.042471 0.000000 -1.000000 0.000000
-0.121365 -0.036750 0.082643 0.000000 -1.000000 0.000000
-0.107564 -0.036750 0.120979 -0.573731 -0.475835 0.666644
-0.102131 -0.031782 -0.125465 -0.629348 0.000000 -0.777124
-0.117073 -0.032082 -0.111715 -0.707107 0.000000 -0.707107
-0.117437 -0.032762 -0.070733 0.913659 -0.335185 -0.229951
-0.121909 -0.031774 -0.021496 -0.173656 0.000000 0.984806
-0.117183 -0.032949 0.020662 -0.173658 -0.000000 -0.984806
-0.117490 -0.032273 0.067833 0.499994 -0.000001 0.866029
-0.121877 -0.032227 0.106562 -0.777126 0.000000 0.629345
-0.110578 -0.031916 0.118210 -0.707107 0.000000 0.707107
-0.102131 0.007878 -0.125465 -0.629345 0.000000 -0.777126
-0.117073 0.007952 -0.111715 -0.707107 0.000000 -0.707107
-0.117011 0.007452 -0.071402 0.843393 0.000000 0.537298
-0.121778 0.008100 -0.021473 -0.173657 -0.000000 0.984806
-0.121779 0.008098 0.021473 -0.173657 0.000001 -0.984806
-0.117647 0.007385 0.067923 0.499990 0.000001 0.866031
-0.121877 0.007988 0.106562 -0.777126 0.000000 0.629345
-0.110578 0.007911 0.118210 -0.707107 0.000000 0.707107
-0.077225 -0.036750 -0.142009 -0.337823 -0.776254 -0.532264
-0.081845 -0.036750 -0.117619 0.000000 -1.000000 0.000000
-0.079047 -0.036750 -0.057764 -0.656929 -0.752411 0.048187
-0.081977 -0.036750 -0.037026 0.000000 -1.000000 0.000000
-0.081725 -0.036750 0.002994 0.000000 -1.000000 0.000000
-0.081979 -0.036750 0.042472 0.000000 -1.000000 0.000000
-0.077763 -0.036750 0.092708 -0.347199 -0.890124 -0.295181
-0.081515 -0.036750 0.122980 0.000000 -1.000000 0.000000
-0.077349 -0.032231 -0.142156 -0.453968 0.000000 -0.891018
-0.081681 -0.032388 -0.097344 -0.766033 -0.000001 0.642802
-0.077569 -0.033052 -0.060645 -0.766052 -0.000001 -0.642779
-0.072044 -0.032456 -0.014855 0.973689 0.000001 0.227879
-0.073546 -0.033643 0.002657 0.994300 -0.071336 -0.079241
-0.079798 -0.033370 0.057748 -0.814163 0.010459 0.580542
-0.077386 -0.032345 0.092225 -0.766033 -0.000001 -0.642801
-0.081667 -0.032206 0.139863 -0.544626 0.000000 0.838679
-0.077349 0.007855 -0.142156 -0.453968 0.000000 -0.891018
-0.081535 0.005660 -0.097169 -0.766034 0.000001 0.642800
-0.079918 0.005988 -0.057565 -0.817239 -0.008554 -0.576236
-0.081592 0.036750 -0.041669 0.000000 1.000000 0.000000
-0.081354 0.036750 -0.001303 0.000000 1.000000 0.000000
-0.081577 0.005717 0.055043 -0.835485 0.000002 0.549513
-0.077784 0.007261 0.092699 -0.766033 0.000001 -0.642801
-0.081667 0.007849 0.139863 -0.544626 0.000000 0.838679
-0.038662 -0.036750 -0.157091 -0.652952 0.715678 -0.247908
-0.041529 -0.036750 -0.107010 0.000000 -1.000000 0.000000
-0.041975 -0.036750 -0.077335 0.000000 -1.000000 0.000000
-0.041992 -0.036750 0.062600 0.000000 -1.000000 0.000000
-0.041770 -0.036750 0.082643 0.000000 -1.000000 0.000000
-0.041398 -0.036750 0.132853 0.000000 -1.000000 0.000000
-0.034774 -0.036750 0.158146 -0.296859 -0.639552 0.709118
-0.037269 -0.031765 -0.157499 -0.258835 0.000000 -0.965922
-0.041995 -0.033207 -0.112097 0.939695 0.000001 -0.342015
-0.038157 -0.032380 -0.062896 0.543554 0.000000 0.839374
-0.038157 -0.032380 0.062896 0.543553 0.000001 -0.839375
-0.037182 -0.031776 0.102157 0.939697 0.000000 0.342008
-0.040272 -0.031760 0.131003 0.300744 0.000005 -0.953705
-0.034951 -0.031818 0.158120 -0.258841 0.000000 0.965920
-0.037269 0.008011 -0.157499 -0.258835 0.000000 -0.965922
-0.041964 0.007665 -0.112013 0.939695 0.000001 -0.342014
-0.038448 0.007861 -0.062707 0.543553 0.000000 0.839375
-0.038449 0.007860 0.062707 0.543552 -0.000001 -0.839376
-0.037008 0.006293 0.101678 0.939697 -0.000000 0.342008
-0.037426 0.008143 0.131900 0.300741 0.000001 -0.953706
-0.034951 0.008024 0.158120 -0.258841 0.000000 0.965920
-0.001240 -0.036750 -0.157524 0.000000 -1.000000 0.000000
-0.001997 -0.036750 -0.117620 0.000000 -1.000000 0.000000
-0.001926 -0.036750 -0.077335 0.000000 -1.000000 0.000000
-0.001653 -0.036750 0.077528 0.000000 -1.000000 0.000000
-0.001644 -0.036750 0.082644 0.000000 -1.000000 0.000000
0.000315 -0.036750 0.122980 -0.703218 -0.710975 -0.000247
-0.001505 -0.036750 0.161817 0.000042 -0.728909 0.684611
-0.000001 -0.027790 -0.162000 0.000044 0.000013 -1.000000
0.002425 -0.031931 -0.161873 0.052316 0.000000 -0.998631
0.037692 -0.032431 -0.103556 0.939697 -0.000000 0.342007
-0.001269 -0.032971 -0.073636 -0.038347 -0.000002 0.999265
0.002963 -0.032747 0.073474 -0.038349 -0.000001 -0.999264
-0.001816 -0.033450 0.098464 -0.058193 0.000001 0.998305
0.000000 -0.032395 0.118680 -1.000000 0.000000 0.000000
-0.001469 -0.031776 0.161923 -0.052306 0.000000 0.998631
0.000001 0.027790 -0.162000 -0.000044 -0.000013 -1.000000
0.002425 0.007767 -0.161873 0.052316 0.000000 -0.998631
-0.001203 0.036750 -0.121920 0.000000 1.000000 0.000000
-0.001200 0.007966 -0.073634 -0.038347 0.000001 0.999265
0.002799 0.008162 0.073480 -0.038351 0.000001 -0.999264
-0.001700 0.007319 0.098471 -0.058193 0.000000 0.998305
0.000000 0.007451 0.118215 -1.000000 0.000000 0.000000
-0.001469 0.007729 0.161923 -0.052306 0.000000 0.998631
0.038662 -0.036750 -0.157091 0.652981 0.715655 -0.247897
0.038727 -0.036750 -0.117619 0.000000 -1.000000 0.000000
0.038123 -0.036750 -0.077335 0.000000 -1.000000 0.000000
0.062797 -0.036750 -0.038879 -0.481763 -0.764956 0.427488
0.066157 -0.036750 0.032894 -0.737940 -0.673046 -0.049531
0.039305 -0.036750 0.062599 -0.239903 -0.951187 -0.194138
0.038482 -0.036750 0.082643 0.000000 -1.000000 0.000000
0.038083 -0.036750 0.122980 0.000000 -1.000000 0.000000
0.038633 -0.031824 -0.157133 0.258834 0.000000 -0.965922
0.042977 -0.032791 -0.118080 0.939697 -0.000000 0.342007
0.038164 -0.032455 -0.062949 -0.477731 -0.000001 0.878506
0.060540 -0.032295 -0.041745 -0.817920 0.000000 0.575333
0.065790 -0.032163 0.032847 -0.896175 0.000001 -0.443701
0.038956 -0.031840 0.062518 -0.477734 -0.000001 -0.878505
0.038462 -0.032124 0.090576 0.396078 0.000002 0.918217
0.042977 -0.032791 0.118080 0.939697 0.000001 -0.342008
0.038633 0.008183 -0.157133 0.258834 0.000000 -0.965922
0.042797 0.008118 -0.117584 0.939697 -0.000001 0.342008
0.038457 0.007752 -0.062790 -0.477736 -0.000000 0.878504
0.060388 0.006954 -0.041960 -0.817920 -0.000000 0.575333
0.065935 0.008202 0.032553 -0.896173 -0.000002 -0.443705
0.038458 0.007753 0.062790 -0.477735 -0.000000 -0.878504
0.041481 0.008164 0.089274 0.396074 -0.000001 0.918219
0.042952 0.006211 0.118009 0.939697 0.000001 -0.342007
0.078383 -0.036750 -0.137229 0.000000 -1.000000 0.000000
0.078651 -0.036750 -0.117619 0.000000 -1.000000 0.000000
0.078174 -0.036750 -0.077335 0.000000 -1.000000 0.000000
0.078268 -0.036750 -0.037026 0.000000 -1.000000 0.000000
0.078155 -0.036750 0.002994 0.000000 -1.000000 0.000000
0.078550 -0.036750 0.042471 0.000000 -1.000000 0.000000
0.078608 -0.036750 0.082643 0.000000 -1.000000 0.000000
0.078368 -0.036750 0.122980 0.000000 -1.000000 0.000000
0.080394 -0.032387 -0.140605 0.491321 0.000000 -0.870978
0.078801 -0.032120 -0.112282 -0.581977 -0.004466 0.813193
0.087297 -0.032741 -0.050401 0.841973 -0.539180 0.019131
0.089628 -0.032435 -0.040793 0.906619 -0.011987 -0.421781
0.092916 -0.031890 0.032425 0.939674 -0.000004 0.342070
0.086886 -0.033688 0.046255 0.812100 0.050273 0.581349
0.078012 -0.034047 0.092971 -0.766031 -0.000000 0.642803
0.078251 -0.032251 0.141696 0.453971 0.000000 0.891016
0.080394 0.008179 -0.140605 0.491319 0.000000 -0.870980
0.078248 0.007904 -0.112649 -0.552038 0.001327 0.833818
0.078459 0.036750 -0.081334 0.000000 1.000000 0.000000
0.078612 0.036750 -0.041669 0.000000 1.000000 0.000000
0.078486 0.036750 -0.001303 0.000000 1.000000 0.000000
0.078180 0.036750 0.038503 0.000000 1.000000 0.000000
0.078299 0.007255 0.093314 -0.766032 0.000000 0.642802
0.078251 0.008144 0.141696 0.453971 0.000000 0.891017
0.118260 -0.036750 -0.107009 0.000000 -1.000000 0.000000
0.118223 -0.036750 -0.077334 0.000000 -1.000000 0.000000
0.118275 -0.036750 -0.017075 0.000000 -1.000000 0.000000
0.118126 -0.036750 0.002994 0.000000 -1.000000 0.000000
0.121947 -0.036750 0.062600 -0.653356 -0.515983 -0.553974
0.118075 -0.036750 0.082643 0.000000 -1.000000 0.000000
0.121494 -0.032212 -0.107034 0.777125 0.000000 -0.629346
0.118448 -0.032877 -0.068386 0.069514 0.988912 0.131232
0.119575 -0.031822 -0.021084 -0.173657 -0.000000 -0.984806
0.118126 -0.032297 0.020829 -0.173656 -0.000000 0.984806
0.122607 -0.032348 0.061280 -0.887005 -0.000001 -0.461760
0.120730 -0.032180 0.107978 0.773780 0.000000 0.633454
0.121494 0.007984 -0.107034 0.777125 0.000000 -0.629346
0.118473 0.006933 -0.068400 0.033645 -0.097114 0.994704
0.119201 0.008196 -0.021018 -0.173657 0.000000 -0.984806
0.118520 0.007988 0.020898 -0.173657 0.000000 0.984806
0.121756 0.007587 0.062915 -0.887003 -0.000002 -0.461763
0.120730 0.007976 0.107978 0.773780 0.000000 0.633454
0.158438 -0.036750 -0.032424 0.236711 0.644654 -0.726904
0.158097 -0.036750 0.002994 0.000000 -1.000000 0.000000
0.158710 -0.032426 -0.032101 0.570458 0.000000 -0.821326
0.161945 -0.031812 0.001042 0.999725 0.000000 0.023452
0.158710 0.007850 -0.032101 0.570458 0.000000 -0.821326
0.161845 0.008007 0.002952 0.998631 0.000000 0.052310
