ply
format ascii 1.0
comment SurfExtract output
element vertex 841
property float x
property float y
property float z
property float nx
property float ny
property float nz
end_header
-0.244413 -0.040728 -0.334585 -0.817129 -0.348746 -0.458995
-0.250289 -0.059649 -0.315544 0.537712 0.157555 -0.828276
-0.225348 -0.059137 -0.215271 0.707093 0.000001 0.707121
-0.251164 -0.061319 -0.184898 0.399868 0.699954 0.591752
-0.250628 -0.060519 -0.058500 0.000000 -0.927092 -0.374835
-0.252594 -0.060519 0.058500 0.000000 -0.927092 0.374835
-0.254378 -0.059845 0.180398 0.839771 0.000000 -0.542941
-0.249658 -0.059819 0.186762 0.777761 -0.000001 -0.628560
-0.214794 -0.060822 0.225825 0.707107 0.000000 -0.707107
-0.254075 -0.024844 0.299038 -0.963719 -0.001954 0.266911
-0.253916 -0.059364 0.319183 0.489500 -0.142873 0.860219
-0.214495 -0.063733 0.350502 -0.752758 -0.617399 -0.228417
-0.244685 -0.023002 -0.334413 -0.639500 -0.291668 -0.711315
-0.254017 -0.018988 -0.310688 0.549111 0.153570 -0.821519
-0.249796 0.005430 -0.254637 0.392730 0.848895 0.353752
-0.252025 0.005891 -0.252961 0.459586 0.784851 0.415680
-0.250052 -0.020794 -0.186273 0.777774 -0.000002 0.628544
-0.250571 -0.020390 -0.058500 0.000000 0.000000 -1.000000
-0.253292 0.004290 -0.054120 0.000000 0.986635 -0.162946
-0.253389 0.004290 -0.012183 0.000000 1.000000 0.000000
-0.252490 -0.020390 0.058500 0.000000 0.000000 1.000000
-0.254318 -0.021432 0.180491 0.839768 0.000003 -0.542946
-0.250053 -0.020800 0.186273 0.777761 0.000002 -0.628560
-0.252767 0.004290 0.226811 0.000000 1.000000 0.000000
-0.254082 -0.019165 0.299052 -0.842563 -0.002433 0.538592
-0.252334 -0.020175 0.324917 0.508984 -0.148250 0.847914
-0.227691 -0.009000 0.346023 0.070209 -0.179795 0.981196
-0.225447 0.020073 -0.347666 -0.578265 -0.002514 -0.815845
-0.250479 0.020110 -0.330097 -0.607992 -0.001671 -0.793941
-0.250440 0.020447 -0.259476 0.724791 0.000002 0.688969
-0.254211 0.021024 0.255508 0.724776 0.000001 -0.688984
-0.254088 0.020584 0.299065 -0.115512 -0.025943 0.992967
-0.249823 0.017683 0.306002 -0.918148 0.341580 -0.200815
-0.227777 0.020075 0.346162 -0.546726 -0.001203 0.837311
-0.212483 -0.063960 -0.354416 0.001538 -0.089234 -0.996009
-0.209560 -0.063960 -0.333811 -0.602081 -0.796574 -0.054479
-0.214148 -0.063960 -0.290048 0.000000 -1.000000 0.000000
-0.213240 -0.063960 -0.249537 0.000000 -1.000000 0.000000
-0.214241 -0.063960 -0.055615 0.000000 -1.000000 0.000000
-0.213875 -0.063960 -0.050983 0.000000 -1.000000 0.000000
-0.214380 -0.063960 -0.009995 0.000000 -1.000000 0.000000
-0.213025 -0.063960 0.029771 0.000000 -1.000000 0.000000
-0.180670 -0.063960 0.070481 -0.613151 -0.788663 0.045348
-0.213918 -0.063960 0.228885 0.000000 -1.000000 0.000000
-0.213723 -0.063960 0.269100 0.000000 -1.000000 0.000000
-0.213379 -0.063960 0.309741 0.000000 -1.000000 0.000000
-0.213046 -0.063960 0.349023 -0.631791 -0.772945 0.058285
-0.210149 -0.060223 -0.357143 -0.506299 0.002499 -0.862354
-0.210855 -0.060042 -0.331769 -0.945676 -0.296495 -0.133368
-0.180295 -0.060434 -0.254444 0.542964 0.000001 0.839756
-0.209503 -0.062171 -0.231115 0.285329 0.709203 0.644685
-0.211313 -0.060519 -0.058500 0.000000 -0.927092 -0.374835
-0.213278 -0.060519 0.058500 0.000000 -0.927092 0.374835
-0.182289 -0.059238 0.068238 -0.926522 0.000001 0.376240
-0.211293 -0.059837 0.229326 0.707107 0.000000 -0.707107
-0.214076 -0.060085 0.328902 -0.543535 0.001622 0.839385
-0.213065 -0.059286 0.346076 -0.973711 0.141174 -0.178767
-0.213716 -0.022747 -0.354558 0.067190 0.108498 -0.991823
-0.205832 0.011004 -0.295348 0.532645 0.191452 0.824400
-0.210200 0.005908 -0.288614 0.384362 0.786472 0.483452
-0.209550 -0.023848 -0.231068 0.691143 0.003303 0.722710
-0.210248 -0.020390 -0.058500 0.000000 0.000000 -1.000000
-0.213867 0.004290 -0.054120 0.000000 0.987261 -0.159110
-0.212612 0.004290 -0.012183 0.000000 1.000000 0.000000
-0.214088 -0.020390 0.058500 0.000000 0.000000 1.000000
-0.182953 -0.021595 0.066603 -0.878652 -0.038139 0.475937
-0.211304 -0.021628 0.229315 0.707107 0.000000 -0.707107
-0.213882 0.004290 0.266401 0.000000 1.000000 0.000000
-0.213552 -0.019020 0.333474 0.617635 -0.158529 0.770322
-0.209519 -0.023771 0.356973 -0.930552 0.196753 0.308806
-0.213102 0.020226 -0.346136 0.593089 0.140118 -0.792850
-0.212409 0.033540 -0.334374 0.000000 1.000000 0.000000
-0.213054 0.019601 -0.290676 0.571261 -0.000001 0.820769
-0.213373 0.016659 0.290454 0.571261 0.000002 -0.820768
-0.212969 0.020318 0.340594 0.634007 -0.159119 0.756780
-0.201765 0.020294 0.349089 -0.970981 0.156672 -0.180692
-0.154687 -0.063960 -0.384402 -0.381800 0.909594 -0.163913
-0.172971 -0.063960 -0.365898 0.375702 -0.907396 -0.188362
-0.173115 -0.063960 -0.331717 0.000000 -1.000000 0.000000
-0.172765 -0.063960 -0.290050 0.000000 -1.000000 0.000000
-0.140119 -0.063960 -0.134408 -0.432303 0.804245 -0.407803
-0.169505 -0.063960 -0.095403 -0.349247 0.757997 -0.550879
-0.170731 -0.063960 -0.090871 -0.361367 0.750388 -0.553472
-0.173952 -0.063960 -0.050982 0.000000 -1.000000 0.000000
-0.173190 -0.063960 -0.009994 0.000000 -1.000000 0.000000
-0.174294 -0.063960 0.029772 0.000000 -1.000000 0.000000
-0.173408 -0.063960 0.070481 0.000000 -1.000000 0.000000
-0.160035 -0.063960 0.109945 -0.534158 -0.697803 0.477229
-0.174148 -0.063960 0.260077 0.000007 -0.992741 -0.120274
-0.173493 -0.063960 0.269100 0.000000 -1.000000 0.000000
-0.173833 -0.063960 0.309743 0.000000 -1.000000 0.000000
-0.174161 -0.063960 0.349021 0.000000 -1.000000 0.000000
-0.164404 -0.024143 -0.379256 -0.815654 -0.008752 -0.578474
-0.172195 -0.062382 -0.365278 0.703048 0.144934 -0.696216
-0.171847 -0.060344 -0.259906 0.542965 0.000002 0.839756
-0.140536 -0.060402 -0.134625 -0.748699 -0.443723 -0.492504
-0.170046 -0.063217 -0.094583 -0.885519 -0.297817 -0.356596
-0.172034 -0.061512 -0.091101 -0.884923 -0.298976 -0.357106
-0.174021 -0.059782 0.087624 -0.884326 -0.300151 0.357598
-0.163359 -0.061528 0.106291 -0.814971 -0.353956 0.458843
-0.171847 -0.060345 0.259906 0.542964 -0.000002 -0.839756
-0.161379 -0.061874 0.266675 0.713497 0.624846 -0.317002
-0.170756 -0.061166 0.364698 0.683184 -0.252932 0.685044
-0.150894 -0.059218 0.385943 0.206283 0.000162 0.978492
-0.169458 0.010436 -0.376089 -0.985911 -0.164566 -0.029948
-0.173448 -0.019038 -0.357098 0.673289 0.189814 -0.714600
-0.173133 0.005329 -0.311490 0.241906 0.859836 0.449627
-0.170464 -0.020242 -0.260800 0.542964 0.000000 0.839756
-0.139774 -0.020069 -0.135387 -0.707107 0.000000 -0.707107
-0.169485 -0.020072 -0.095565 -0.868344 -0.000001 -0.495962
-0.170833 -0.022585 -0.093204 -0.868346 -0.000001 -0.495959
-0.172472 0.004290 -0.054118 0.000000 1.000000 0.000000
-0.173779 0.004290 -0.012183 0.000000 1.000000 0.000000
-0.173274 0.004290 0.026288 0.000000 1.000000 0.000000
-0.174115 -0.023172 0.087459 -0.907711 0.020375 0.419100
-0.161282 -0.022150 0.109383 -0.829887 0.010473 0.557834
-0.172675 -0.021857 0.259371 0.542967 0.000002 -0.839754
-0.173727 0.004290 0.266400 0.000000 1.000000 0.000000
-0.174352 0.004315 0.306573 0.593029 0.539474 -0.597733
-0.170562 -0.020220 0.372787 0.645859 -0.186100 0.740427
-0.150863 -0.020203 0.385900 -0.458171 0.002573 0.888861
-0.170532 0.020140 -0.377642 -0.785170 -0.002500 -0.619275
-0.170799 0.020211 -0.373131 -0.987990 -0.146846 0.048081
-0.169952 0.020616 -0.317733 0.485318 -0.000001 0.874338
-0.174147 0.020065 0.315405 0.485295 -0.000001 -0.874351
-0.173445 0.020534 0.352020 -0.767903 -0.002628 0.640561
-0.145993 0.020249 0.386290 -0.974791 0.172530 0.141480
-0.124640 -0.063960 -0.395100 -0.318473 -0.628555 -0.709573
-0.129743 -0.063960 -0.369978 -0.219097 -0.788869 -0.574180
-0.133242 -0.063960 -0.331716 0.000000 -1.000000 0.000000
-0.133456 -0.063960 -0.290051 0.000000 -1.000000 0.000000
-0.129463 -0.063960 -0.145166 0.145916 0.563925 -0.812833
-0.134004 -0.063960 -0.129502 0.000000 -1.000000 0.000000
-0.134074 -0.063960 -0.090870 0.000000 -1.000000 0.000000
-0.134028 -0.063960 -0.050985 0.000000 -1.000000 0.000000
-0.133872 -0.063960 -0.009992 0.000000 -1.000000 0.000000
-0.133718 -0.063960 0.029773 0.000000 -1.000000 0.000000
-0.133460 -0.063960 0.070482 0.000000 -1.000000 0.000000
-0.133212 -0.063960 0.109945 0.000000 -1.000000 0.000000
-0.125927 -0.063960 0.148224 -0.441555 -0.632089 0.636783
-0.134031 -0.063960 0.285171 0.000000 -1.000000 0.000000
-0.134290 -0.063960 0.309743 0.000000 -1.000000 0.000000
-0.133659 -0.063960 0.349023 0.000000 -1.000000 0.000000
-0.128089 -0.063960 0.390252 -0.659163 -0.751079 0.037209
-0.129544 -0.059552 -0.392180 -0.968855 -0.163408 -0.186058
-0.129956 -0.059002 -0.373883 -0.988572 -0.147560 0.030844
-0.100819 -0.062134 -0.294983 0.513590 0.700628 0.495325
-0.133328 -0.059693 -0.281714 0.451306 -0.000000 0.892369
-0.130593 -0.061633 -0.144568 -0.744451 -0.442553 -0.499939
-0.132577 -0.061387 0.142584 -0.751151 -0.437801 0.494068
-0.129504 -0.058883 0.145657 -0.680388 0.003221 0.732845
-0.131257 -0.061001 0.282762 0.624490 0.662544 -0.413579
-0.133449 -0.059127 0.369046 -0.338015 0.001639 0.941139
-0.128645 -0.059864 0.386317 -0.987901 0.144348 0.056701
-0.130391 -0.020290 -0.393308 -0.303424 0.001650 -0.952854
-0.130793 0.010347 -0.335425 0.376126 0.238325 0.895394
-0.133095 0.005652 -0.331051 0.252385 0.824338 0.506723
-0.132713 -0.019185 -0.282025 0.451312 -0.000001 0.892366
-0.129641 -0.019910 -0.145520 -0.683489 0.003973 -0.729950
-0.132692 0.004290 -0.131900 0.000000 1.000000 0.000000
-0.132875 0.004290 -0.092481 0.000000 1.000000 0.000000
-0.133052 0.004290 -0.054117 0.000000 1.000000 0.000000
-0.133007 0.004290 -0.012182 -0.008688 0.999962 0.000419
-0.133069 0.004290 0.026286 0.000000 1.000000 0.000000
-0.133024 0.004290 0.065867 0.000000 1.000000 0.000000
-0.133005 -0.019440 0.142156 -0.707107 0.000000 0.707107
-0.129487 -0.017254 0.145674 -0.698287 -0.000437 0.715818
-0.130683 -0.020419 0.283052 0.451338 0.000002 -0.892353
-0.133126 0.004290 0.306564 0.000000 1.000000 0.000000
-0.129463 -0.019941 0.370418 0.332282 0.003834 0.943172
-0.122606 -0.019051 0.387630 -0.986938 0.146189 0.067687
-0.132768 0.019844 -0.390552 0.757930 0.147534 -0.635433
-0.134321 0.020969 -0.334419 0.394355 -0.000000 0.918958
-0.100153 0.020811 -0.060175 -0.825987 0.076280 -0.558503
-0.115100 0.016109 -0.024492 -0.948816 0.219790 -0.226807
-0.115825 0.019963 -0.013441 -0.987858 0.125475 -0.091608
-0.114533 0.016948 0.026041 -0.942264 0.241874 0.231594
-0.096278 0.019520 0.065906 -0.804229 0.135359 0.578700
-0.132276 0.020000 0.335296 0.394348 -0.000003 -0.918961
-0.129427 0.019883 0.379581 0.791956 -0.149228 0.592061
-0.134364 0.020333 0.385792 0.749251 -0.144767 0.646270
-0.099847 0.060265 -0.060612 -0.819145 0.000000 -0.573587
-0.114447 0.059515 -0.023214 -0.965930 0.000000 -0.258804
-0.115786 0.060853 -0.013886 -0.996193 0.000000 -0.087179
-0.113757 0.059435 0.025790 -0.965933 0.000000 0.258791
-0.095286 0.060123 0.067126 -0.819144 0.000000 0.573588
-0.093389 -0.063960 -0.400879 0.000809 -0.079040 -0.996871
-0.092500 -0.063960 -0.371679 0.000000 -1.000000 0.000000
-0.093379 -0.063960 -0.331715 0.000000 -1.000000 0.000000
-0.056896 -0.063960 -0.290050 -0.648091 -0.761460 0.012516
-0.058154 -0.063960 -0.249533 -0.683399 -0.729917 0.013678
-0.084689 -0.063960 -0.175188 -0.418746 -0.705983 -0.571174
-0.090363 -0.063960 -0.171757 -0.598244 0.731221 -0.327752
-0.092923 -0.063960 -0.129502 0.000000 -1.000000 0.000000
-0.093564 -0.063960 -0.090871 0.000000 -1.000000 0.000000
-0.094104 -0.063960 -0.050983 0.000000 -1.000000 0.000000
-0.092680 -0.063960 -0.009992 0.000000 -1.000000 0.000000
-0.093141 -0.063960 0.029770 0.000000 -1.000000 0.000000
-0.093515 -0.063960 0.070482 0.000000 -1.000000 0.000000
-0.093876 -0.063960 0.109946 0.000000 -1.000000 0.000000
-0.094149 -0.063960 0.150208 0.000000 -1.000000 0.000000
-0.060064 -0.063960 0.185754 -0.299567 -0.861436 0.410107
-0.057100 -0.063960 0.228884 -0.921343 -0.388148 0.021656
-0.093512 -0.063960 0.299271 0.000009 -0.994464 -0.105079
-0.093096 -0.063960 0.309739 0.000000 -1.000000 0.000000
-0.093156 -0.063960 0.349021 0.000000 -1.000000 0.000000
-0.093083 -0.063960 0.390251 0.000000 -1.000000 0.000000
-0.092563 -0.060088 -0.403913 0.300168 0.001679 -0.953885
-0.089724 -0.059579 -0.298566 0.253996 -0.000000 0.967205
-0.058501 -0.059436 -0.293688 -1.000000 0.000000 0.000000
-0.058501 -0.059436 -0.253508 -1.000000 0.000000 0.000000
-0.085845 -0.063107 -0.175036 -0.581428 -0.618570 -0.528501
-0.091511 -0.061182 -0.171800 0.192866 -0.530477 -0.825468
-0.070516 -0.062897 -0.019703 0.827435 -0.257018 0.499292
-0.072238 -0.061466 -0.011643 0.902387 -0.057542 0.427067
-0.067034 -0.061919 0.029438 0.833297 -0.103158 -0.543116
-0.094164 -0.060009 0.170286 -0.495963 0.000000 0.868344
-0.059966 -0.061038 0.185855 -0.599709 -0.073760 0.796812
-0.058501 -0.059436 0.226723 -1.000000 0.000000 0.000000
-0.089724 -0.059578 0.298566 0.253992 -0.000000 -0.967206
-0.094286 -0.024106 0.383521 -0.987282 0.143524 0.068377
-0.094083 -0.060061 0.403565 -0.228309 0.001675 0.973587
-0.092438 -0.019415 -0.395557 0.816639 0.144512 -0.558764
-0.092383 0.005923 -0.345152 0.210182 0.803399 0.557112
-0.092296 -0.021431 -0.297891 0.253999 -0.000000 0.967204
-0.058501 -0.020378 -0.293246 -1.000000 0.000000 0.000000
-0.058501 -0.020378 -0.253643 -1.000000 0.000000 0.000000
-0.085607 -0.022981 -0.175172 -0.446483 -0.003480 -0.894786
-0.091135 -0.021101 -0.172015 -0.495962 0.000000 -0.868344
-0.094200 0.004290 -0.131901 0.000000 1.000000 0.000000
-0.090618 0.005492 -0.090155 -0.255013 0.935172 -0.245807
-0.070156 -0.020685 -0.020917 0.886281 0.279957 -0.368957
-0.072173 -0.019144 -0.011927 0.993857 0.015956 0.109519
-0.068354 -0.021849 0.026314 0.934843 -0.002181 -0.355056
-0.094351 0.005699 0.084943 -0.270316 0.934680 0.230873
-0.093849 0.004290 0.106422 0.000000 1.000000 0.000000
-0.094200 -0.021236 0.170265 -0.495960 0.000000 0.868345
-0.060362 -0.021399 0.185615 -0.613761 -0.000931 0.789491
-0.058501 -0.020378 0.227245 -1.000000 0.000000 0.000000
-0.090171 -0.022090 0.298449 0.253993 -0.000001 -0.967206
-0.093621 0.004290 0.306565 0.000000 1.000000 0.000000
-0.094187 -0.019426 0.380925 -0.677482 -0.003096 0.735533
-0.093367 -0.019343 0.386805 -0.987282 0.143524 0.068377
-0.092878 0.020895 -0.384915 0.851869 0.145126 -0.503247
-0.089411 0.019753 -0.349442 0.232338 0.009781 0.972586
-0.069441 0.017428 -0.094582 -0.548588 0.292011 -0.783442
-0.090391 0.019355 -0.074402 -0.746684 0.116339 -0.654926
-0.070399 0.020617 -0.020135 0.964730 -0.003098 0.263224
-0.072169 0.019243 -0.011863 0.993875 -0.016562 0.109259
-0.066816 0.019647 0.029978 0.907320 0.002677 -0.420432
-0.094260 0.020451 0.068591 -0.802625 0.092587 0.589254
-0.089654 0.020259 0.349392 0.232618 -0.001532 -0.972567
-0.087556 0.020841 0.386360 -0.986838 0.144255 0.073078
-0.065034 0.059707 -0.096751 -0.573589 0.000000 -0.819144
-0.089613 0.059948 -0.075221 -0.765425 0.000000 -0.643525
-0.094183 0.063960 -0.053297 0.000000 1.000000 0.000000
-0.092757 0.063960 -0.012239 0.000000 1.000000 0.000000
-0.093218 0.063960 0.027594 0.000000 1.000000 0.000000
-0.094149 0.060088 0.068749 -0.819144 0.000000 0.573589
-0.053713 -0.063960 -0.400206 0.375735 -0.925716 -0.043279
-0.054223 -0.063960 -0.371676 0.000000 -1.000000 0.000000
-0.053507 -0.063960 -0.331716 0.000000 -1.000000 0.000000
-0.052758 -0.063960 -0.290050 0.000000 -1.000000 0.000000
-0.054073 -0.063960 -0.249533 0.000000 -1.000000 0.000000
-0.053340 -0.063960 -0.210115 0.000000 -1.000000 0.000000
-0.052624 -0.063960 -0.171753 0.000000 -1.000000 0.000000
-0.053800 -0.063960 -0.129504 0.000000 -1.000000 0.000000
-0.053050 -0.063960 -0.090871 0.000000 -1.000000 0.000000
-0.054183 -0.063960 -0.050985 0.106442 -0.987451 0.116666
-0.054004 -0.063960 0.049216 0.300891 -0.898032 -0.320942
-0.053566 -0.063960 0.070481 0.000000 -1.000000 0.000000
-0.052749 -0.063960 0.109949 0.000000 -1.000000 0.000000
-0.053676 -0.063960 0.150205 0.000000 -1.000000 0.000000
-0.052835 -0.063960 0.189212 0.000000 -1.000000 0.000000
-0.053691 -0.063960 0.228884 0.000000 -1.000000 0.000000
-0.052802 -0.063960 0.269100 0.000000 -1.000000 0.000000
-0.053550 -0.063960 0.309743 0.000000 -1.000000 0.000000
-0.054273 -0.063960 0.349023 0.000000 -1.000000 0.000000
-0.053304 -0.063960 0.390253 0.000000 -1.000000 0.000000
-0.054194 -0.060100 -0.399950 0.880350 0.145804 -0.451360
-0.048061 -0.060099 -0.055171 0.636609 -0.000388 0.771187
-0.050103 -0.061180 -0.053434 0.803594 0.592323 -0.058227
-0.054133 -0.061867 0.049041 0.203503 0.737633 -0.643804
-0.029761 -0.059385 0.066865 0.394544 -0.000095 -0.918877
-0.050176 -0.060186 0.393916 0.881145 -0.161936 0.444253
-0.051602 -0.023414 -0.389022 -0.124195 0.001285 -0.992257
-0.051219 0.006025 -0.353714 0.071237 0.805722 0.587994
-0.053079 0.004290 -0.332267 0.000000 1.000000 0.000000
-0.052403 0.004290 -0.292781 0.000000 1.000000 0.000000
-0.053852 0.004290 -0.254290 -0.080614 0.996744 0.001444
-0.053133 0.004290 -0.214116 -0.019511 0.999810 0.000349
-0.052382 0.004290 -0.172434 0.000000 1.000000 0.000000
-0.050624 0.004290 -0.131411 0.000000 1.000000 0.000000
-0.045004 -0.019072 -0.057636 0.627844 -0.000004 0.778339
-0.052876 -0.019178 -0.050554 0.752601 0.001196 0.658475
-0.052876 -0.019180 0.050556 0.752518 0.001201 -0.658571
-0.052355 0.015892 0.105505 -0.394630 0.278001 0.875775
-0.052735 0.005692 0.115543 -0.136039 0.934674 0.328448
-0.054008 0.004290 0.145770 0.000000 1.000000 0.000000
-0.053171 0.004290 0.185943 0.000000 1.000000 0.000000
-0.054099 0.004290 0.226813 -0.081283 0.996690 0.001739
-0.053252 0.004290 0.266402 -0.015053 0.999887 0.000322
-0.054108 0.004290 0.306565 0.000000 1.000000 0.000000
-0.049832 0.004290 0.347191 0.589930 0.570599 -0.571313
-0.049525 -0.023450 0.404720 0.866153 -0.146944 0.477690
-0.049672 0.020841 -0.409804 -0.952701 -0.148971 -0.264893
-0.053108 0.018533 -0.356745 0.116093 -0.000420 0.993238
-0.050686 0.018225 -0.105517 -0.382151 0.228348 -0.895443
-0.047871 0.020154 -0.055303 0.632132 -0.000341 0.774860
-0.049828 0.019051 -0.053691 0.665903 0.000678 0.746038
-0.053685 0.018178 0.049581 0.765865 0.000265 -0.643001
-0.052509 0.019651 0.104197 -0.416144 0.148113 0.897155
-0.050965 0.016900 0.105822 -0.405018 0.285508 0.868588
-0.050951 0.018295 0.356964 0.101166 0.000001 -0.994870
-0.054243 0.020815 0.408594 -0.961179 0.147524 0.233178
-0.049496 0.059741 -0.105524 -0.422608 0.000000 -0.906313
-0.053095 0.063960 -0.093253 0.000000 1.000000 0.000000
-0.050506 0.060998 -0.053043 0.696337 0.020226 0.717430
-0.054259 0.060316 0.048889 0.769423 0.000000 -0.638739
-0.054382 0.059711 0.103246 -0.422609 0.000000 0.906312
-0.047867 0.059750 0.106284 -0.422609 0.000000 0.906312
-0.009645 -0.063960 -0.394999 -0.751405 -0.659836 0.002491
-0.013822 -0.063960 -0.371680 0.000000 -1.000000 0.000000
-0.013638 -0.063960 -0.331716 0.000000 -1.000000 0.000000
-0.013446 -0.063960 -0.290050 0.000000 -1.000000 0.000000
-0.013261 -0.063960 -0.249533 0.000000 -1.000000 0.000000
-0.013081 -0.063960 -0.210115 0.000000 -1.000000 0.000000
-0.012908 -0.063960 -0.171757 0.000000 -1.000000 0.000000
-0.012714 -0.063960 -0.129501 0.000000 -1.000000 0.000000
-0.012537 -0.063960 -0.090868 0.000000 -1.000000 0.000000
-0.013542 -0.063960 0.085160 0.000000 -1.000000 0.000000
-0.013412 -0.063960 0.109944 0.000000 -1.000000 0.000000
-0.013200 -0.063960 0.150206 0.000000 -1.000000 0.000000
-0.012991 -0.063960 0.189212 0.000000 -1.000000 0.000000
-0.012783 -0.063960 0.228884 0.000000 -1.000000 0.000000
-0.014248 -0.063960 0.269100 0.000000 -1.000000 0.000000
-0.014006 -0.063960 0.309743 0.000000 -1.000000 0.000000
-0.013771 -0.063960 0.349024 0.000000 -1.000000 0.000000
-0.013524 -0.063960 0.390254 0.000000 -1.000000 0.000000
-0.000017 -0.063813 -0.414393 -0.024056 -0.758058 -0.651744
-0.009430 -0.059755 -0.401140 -0.951816 -0.147557 -0.268838
-0.011348 -0.059703 -0.081774 0.258897 -0.000000 0.965905
-0.011348 -0.059711 0.081775 0.258741 0.000001 -0.965947
-0.009866 -0.060021 0.395107 -0.240394 0.155411 0.958154
-0.009652 -0.019713 -0.414235 -0.150145 -0.001837 -0.988662
-0.014186 0.005780 -0.356837 0.000000 0.830587 0.556889
-0.014085 0.004290 -0.332271 0.000000 1.000000 0.000000
-0.013903 0.004290 -0.292781 0.000000 1.000000 0.000000
-0.013728 0.004290 -0.254290 0.000000 1.000000 0.000000
-0.013544 0.004290 -0.214116 0.000000 1.000000 0.000000
-0.013355 0.004290 -0.172431 0.000000 1.000000 0.000000
-0.010130 0.004569 -0.129488 -0.027283 0.970329 -0.240244
-0.011094 -0.019224 -0.081842 0.258896 -0.000000 0.965905
-0.014364 -0.019272 0.080567 0.392615 0.852192 -0.345865
-0.013821 0.005787 0.125983 -0.027885 0.934677 0.354403
-0.013732 0.004290 0.145766 0.000000 1.000000 0.000000
-0.013516 0.004290 0.185942 0.000000 1.000000 0.000000
-0.013302 0.004290 0.226813 0.000000 1.000000 0.000000
-0.013095 0.004290 0.266402 0.000000 1.000000 0.000000
-0.012884 0.004290 0.306565 0.000000 1.000000 0.000000
-0.014358 0.004290 0.347190 0.000000 1.000000 0.000000
-0.012297 -0.019789 0.392884 0.788271 -0.187401 0.586097
-0.009671 0.019716 -0.414251 0.369402 0.547967 -0.750516
-0.014088 0.020970 -0.360287 0.000000 0.000000 1.000000
-0.010092 0.019012 -0.116353 -0.075129 0.164219 -0.983559
-0.012820 0.020251 -0.081380 0.398165 -0.001122 0.917313
-0.014364 0.019272 0.080568 0.392658 -0.852180 -0.345844
-0.013765 0.018611 0.116140 -0.076873 0.182424 0.980210
-0.009752 0.020970 0.360287 0.000000 0.000000 -1.000000
-0.010442 0.020045 0.405290 0.910435 -0.144049 0.387759
-0.009402 0.060280 -0.116177 -0.087183 0.000000 -0.996192
-0.012523 0.060565 -0.081459 0.355749 -0.000775 0.934581
-0.010601 0.059848 0.081975 0.258741 0.000000 -0.965947
-0.013491 0.060197 0.115820 -0.087135 0.000000 0.996197
0.026912 -0.063960 -0.409753 -0.923643 -0.348377 -0.159738
0.026579 -0.063960 -0.371679 0.000000 -1.000000 0.000000
0.026229 -0.063960 -0.331716 0.000000 -1.000000 0.000000
0.025866 -0.063960 -0.290050 0.000000 -1.000000 0.000000
0.027551 -0.063960 -0.249533 0.000000 -1.000000 0.000000
0.027177 -0.063960 -0.210115 0.000000 -1.000000 0.000000
0.026809 -0.063960 -0.171757 0.000000 -1.000000 0.000000
0.026409 -0.063960 -0.129501 0.000000 -1.000000 0.000000
0.026043 -0.063960 -0.090874 0.000000 -1.000000 0.000000
0.050424 -0.063960 -0.053298 -0.488868 -0.626018 0.607544
0.035497 -0.063960 0.064137 -0.351250 -0.890138 -0.290306
0.026332 -0.063960 0.070479 0.000000 -1.000000 0.000000
0.025929 -0.063960 0.109944 0.000000 -1.000000 0.000000
0.027277 -0.063960 0.150206 0.000000 -1.000000 0.000000
0.026854 -0.063960 0.189212 0.000000 -1.000000 0.000000
0.026421 -0.063960 0.228884 0.000000 -1.000000 0.000000
0.025982 -0.063960 0.269100 0.000000 -1.000000 0.000000
0.027187 -0.063960 0.309743 0.000000 -1.000000 0.000000
0.026732 -0.063960 0.349024 0.000000 -1.000000 0.000000
0.026255 -0.063960 0.390250 0.000000 -1.000000 0.000000
0.028844 -0.060281 -0.413384 -0.020580 0.001117 -0.999788
0.059692 -0.059460 -0.304427 0.658180 0.024037 0.752477
0.058499 -0.059436 -0.289862 1.000000 0.000000 0.000000
0.058499 -0.059436 -0.249682 1.000000 0.000000 0.000000
0.058499 -0.059436 -0.209502 1.000000 0.000000 0.000000
0.025705 -0.062047 -0.068566 -0.566998 0.779865 0.265185
0.050103 -0.061176 -0.053432 -0.804031 0.591548 -0.060042
0.033858 -0.060096 0.064879 -0.465754 -0.000000 -0.884914
0.029762 -0.059402 0.066869 -0.395906 -0.000197 -0.918291
0.060543 -0.060528 0.185517 0.561383 0.001544 0.827555
0.059965 -0.061038 0.185855 0.599718 -0.073759 0.796805
0.058499 -0.059436 0.230549 1.000000 0.000000 0.000000
0.058499 -0.059436 0.268815 1.000000 0.000000 0.000000
0.025813 -0.060436 0.408123 -0.895076 0.144350 0.421904
0.026727 -0.020070 -0.413486 0.397719 0.001045 -0.917506
0.027268 0.005079 -0.354576 -0.028544 0.915536 0.401222
0.027080 0.004290 -0.332271 0.000000 1.000000 0.000000
0.026735 0.004290 -0.292781 0.000000 1.000000 0.000000
0.026397 0.004290 -0.254290 0.000000 1.000000 0.000000
0.026044 0.004290 -0.214116 0.000000 1.000000 0.000000
0.025677 0.004290 -0.172431 0.000000 1.000000 0.000000
0.030373 0.004290 -0.131412 0.000000 1.000000 0.000000
0.027116 -0.020204 -0.067976 -0.385013 0.000012 0.922911
0.049829 -0.019061 -0.053689 -0.667482 -0.000738 0.744626
0.033107 -0.019755 0.065274 -0.462829 0.000069 -0.886448
0.027118 -0.020199 0.067975 -0.385015 0.000013 -0.922910
0.026745 0.005771 0.123902 0.082992 0.934677 0.345676
0.026545 0.004290 0.145767 0.000000 1.000000 0.000000
0.026138 0.004290 0.185942 0.000000 1.000000 0.000000
0.025721 0.004290 0.226813 0.000000 1.000000 0.000000
0.027063 0.004290 0.266402 0.000000 1.000000 0.000000
0.026625 0.004290 0.306565 0.000000 1.000000 0.000000
0.026184 0.004290 0.347189 0.000000 1.000000 0.000000
0.026100 -0.019302 0.392897 -0.895163 0.165628 0.413825
0.025711 0.017245 -0.404473 0.937861 0.143350 -0.316020
0.026566 0.019426 -0.359444 -0.101163 -0.000002 0.994870
0.030302 0.019745 -0.112589 0.254561 0.142056 -0.956566
0.026526 0.018551 -0.068223 -0.374559 0.000200 0.927203
0.049826 0.019056 -0.053690 -0.666001 0.001073 0.745950
0.034308 0.020312 0.064646 -0.463541 0.000143 -0.886075
0.030399 0.020918 0.066603 -0.407757 -0.000456 -0.913091
0.028446 0.020594 0.113044 0.292880 0.102625 0.950626
0.029277 0.019046 0.359168 -0.101164 -0.000001 -0.994870
0.027052 0.020714 0.391511 0.582085 0.009384 0.813074
0.027861 0.059440 -0.113201 0.258791 0.000000 -0.965933
0.025910 0.058943 -0.068480 -0.362868 0.000407 0.931841
0.050507 0.061004 -0.053041 -0.699605 0.020374 0.714239
0.033516 0.060453 0.065067 -0.462898 0.000160 -0.886411
0.027803 0.060060 0.067688 -0.385729 -0.000000 -0.922612
0.027861 0.059440 0.113201 0.258837 0.000000 0.965921
0.065611 -0.063960 -0.406788 0.749178 0.647826 -0.138035
0.066980 -0.063960 -0.371672 0.000000 -1.000000 0.000000
0.066098 -0.063960 -0.331710 0.000000 -1.000000 0.000000
0.105331 -0.063960 -0.294002 0.000012 -0.994269 0.106905
0.066767 -0.063960 -0.181885 -0.000004 -0.168268 -0.985741
0.066529 -0.063960 -0.171756 0.000000 -1.000000 0.000000
0.067490 -0.063960 -0.129505 0.000000 -1.000000 0.000000
0.066554 -0.063960 -0.090871 0.000000 -1.000000 0.000000
0.067492 -0.063960 -0.050981 0.000000 -1.000000 0.000000
0.069282 -0.063960 0.025411 -0.604489 -0.636797 -0.478626
0.067323 -0.063960 0.029775 -0.598257 -0.636035 -0.487389
0.066275 -0.063960 0.070479 0.000000 -1.000000 0.000000
0.067052 -0.063960 0.109947 0.000000 -1.000000 0.000000
0.065994 -0.063960 0.150206 0.000000 -1.000000 0.000000
0.068532 -0.063960 0.304519 -0.224934 -0.971152 -0.079168
0.066732 -0.063960 0.309741 0.000000 -1.000000 0.000000
0.065613 -0.063960 0.349019 0.000000 -1.000000 0.000000
0.066033 -0.063960 0.390249 0.000000 -1.000000 0.000000
0.065987 -0.060016 -0.409095 0.423743 0.001499 -0.905781
0.065631 -0.063817 -0.304893 0.342430 0.681990 0.646245
0.102955 -0.061140 -0.294172 -0.513620 0.700613 0.495314
0.070573 -0.062767 -0.181339 0.577772 -0.625869 -0.523896
0.089717 -0.063451 -0.172824 0.619711 -0.564926 -0.544809
0.067033 -0.061922 -0.029433 -0.833177 -0.103211 0.543289
0.070514 -0.062879 0.019714 -0.828469 -0.252967 -0.499647
0.067033 -0.061924 0.029433 -0.833210 -0.103666 -0.543153
0.066623 -0.059191 0.182943 0.376206 -0.000001 0.926536
0.069882 -0.058999 0.303776 -0.253993 0.000002 -0.967206
0.073933 -0.060091 0.385407 0.190336 0.001655 0.981718
0.070474 -0.063855 0.390604 0.657450 -0.748628 0.085530
0.067476 -0.019590 -0.386591 -0.359999 -0.560930 -0.745492
0.066421 0.005989 -0.350856 -0.141736 0.801065 0.581555
0.066315 -0.019503 -0.304713 -0.253994 -0.000002 0.967206
0.102971 -0.020343 -0.294166 -0.354639 0.000002 0.935003
0.068779 -0.021141 -0.182068 0.376239 -0.000001 -0.926523
0.066763 0.004290 -0.172433 0.000000 1.000000 0.000000
0.069031 0.004290 -0.131411 0.000000 1.000000 0.000000
0.075593 0.010944 -0.093141 0.486791 0.661961 -0.569949
0.066464 -0.021513 -0.030787 -0.900409 0.000576 0.435045
0.070398 -0.020601 0.020142 -0.964144 0.003613 -0.265354
0.068353 -0.021851 0.026319 -0.933706 -0.002029 -0.358034
0.069648 0.006001 0.105236 0.185745 0.934677 0.303115
0.067750 0.005741 0.107198 0.185746 0.934676 0.303115
0.066854 -0.019452 0.182850 0.376206 -0.000000 0.926536
0.066316 -0.019505 0.304713 -0.253993 0.000001 -0.967206
0.066198 0.003097 0.306122 -0.316343 0.929905 -0.187626
0.068586 0.005066 0.348801 -0.059346 0.916675 -0.395202
0.066336 -0.019001 0.408746 -0.463858 0.145094 0.873947
0.070476 0.020753 -0.396188 -0.878166 -0.148832 -0.454613
0.066072 0.018116 -0.354238 -0.201299 0.000002 0.979530
0.069442 0.017427 -0.094581 0.548561 0.292039 -0.783450
0.069364 0.019772 -0.093761 0.571331 0.139543 -0.808770
0.066814 0.019651 -0.029974 -0.907391 0.002537 0.420280
0.070399 0.020607 0.020138 -0.964675 -0.003205 -0.263424
0.066813 0.019678 0.029957 -0.907722 0.003384 -0.419558
0.069364 0.019772 0.093761 0.571323 0.139585 0.808768
0.104690 0.019036 0.344757 -0.299368 0.000002 -0.954138
0.070351 0.019075 0.353359 -0.201297 -0.000004 -0.979530
0.065928 0.020702 0.396526 -0.179963 0.129252 0.975145
0.067957 0.059716 -0.094702 0.573565 0.000000 -0.819160
0.068951 0.059207 -0.094007 0.573564 0.000000 -0.819161
0.066561 0.059692 -0.030562 -0.901017 -0.000493 0.433784
0.070317 0.059875 0.020410 -0.963428 0.000320 -0.267969
0.067148 0.058902 0.029196 -0.903918 0.003808 -0.427689
0.068951 0.059206 0.094007 0.573564 0.000000 0.819160
0.109825 -0.063960 -0.380377 -0.538888 -0.822752 -0.180773
0.107384 -0.063960 -0.371675 0.000000 -1.000000 0.000000
0.105966 -0.063960 -0.331712 0.000000 -1.000000 0.000000
0.106657 -0.063960 -0.292791 -0.253460 -0.691352 0.676602
0.105868 -0.063960 -0.161701 -0.000011 -0.187221 -0.982318
0.106617 -0.063960 -0.129503 0.000000 -1.000000 0.000000
0.107070 -0.063960 -0.090870 0.000000 -1.000000 0.000000
0.107412 -0.063960 -0.050983 0.000000 -1.000000 0.000000
0.105786 -0.063960 -0.009995 0.000000 -1.000000 0.000000
0.106052 -0.063960 0.029770 0.000000 -1.000000 0.000000
0.106225 -0.063960 0.070480 0.000000 -1.000000 0.000000
0.106390 -0.063960 0.109945 0.000000 -1.000000 0.000000
0.106467 -0.063960 0.150207 0.000000 -1.000000 0.000000
0.106990 -0.063960 0.294003 0.000014 -0.994269 -0.106906
0.106277 -0.063960 0.309740 0.000000 -1.000000 0.000000
0.106119 -0.063960 0.349019 0.000000 -1.000000 0.000000
0.115441 -0.063960 0.388631 -0.716616 -0.356942 0.599211
0.110340 -0.060166 -0.382591 -0.822213 -0.197538 -0.533802
0.125540 -0.039220 -0.372679 0.930997 0.197268 -0.307133
0.107220 -0.059157 -0.292554 -0.354638 0.000003 0.935004
0.108877 -0.060767 -0.161668 0.643061 -0.537312 -0.545682
0.144530 -0.059909 -0.130630 0.747284 -0.446366 -0.492264
0.130599 -0.061651 0.144560 0.744743 -0.442349 0.499685
0.110592 -0.059139 0.160359 0.602689 0.000617 0.797976
0.107220 -0.059162 0.292555 -0.354609 -0.000002 -0.935015
0.106216 -0.059510 0.377791 -0.282975 0.001005 0.959127
0.105772 -0.024881 0.388835 0.985332 -0.152819 0.075945
0.110372 -0.019611 -0.392906 -0.787876 -0.148289 -0.597713
0.107445 0.005394 -0.339873 -0.159548 0.855052 0.493387
0.107243 0.004290 -0.332264 0.000000 1.000000 0.000000
0.107326 -0.021711 -0.292514 -0.354637 0.000002 0.935004
0.110192 -0.023617 -0.160664 0.606923 -0.000001 -0.794761
0.106354 0.004290 -0.131900 0.000000 1.000000 0.000000
0.109409 0.004290 -0.089495 0.000000 1.000000 0.000000
0.108647 0.010521 -0.052039 0.692464 0.661994 -0.286806
0.115339 0.015328 0.024248 0.948389 0.220619 0.227783
0.110428 0.005763 0.062366 0.303110 0.934680 0.185738
0.108381 0.005585 0.066603 0.303125 0.934675 0.185737
0.106856 0.004290 0.106423 0.000000 1.000000 0.000000
0.110434 -0.019700 0.160479 0.606949 -0.000001 0.794741
0.109409 -0.020772 0.291725 -0.354611 0.000000 -0.935014
0.105643 0.004290 0.306564 0.000000 1.000000 0.000000
0.106876 -0.019341 0.378652 0.945429 -0.184266 0.268718
0.106526 -0.019172 0.389805 0.985173 -0.138505 0.101248
0.110097 0.019518 -0.399472 0.124705 -0.003143 -0.992189
0.105717 0.019970 -0.344435 -0.299365 0.000001 0.954139
0.134532 0.017915 -0.334328 -0.394347 -0.000001 0.918962
0.106430 0.017249 -0.049413 0.912090 0.241514 -0.331304
0.115408 0.019685 0.018825 0.985102 0.143325 0.095036
0.110455 0.020354 0.038105 0.899827 0.038908 0.434509
0.108877 0.020476 0.343444 -0.299364 -0.000002 -0.954139
0.106825 0.033540 0.346851 0.000000 1.000000 0.000000
0.107030 0.021034 0.400320 0.258533 -0.001298 0.966002
0.107637 0.060678 -0.044961 0.906312 0.000000 -0.422609
0.105877 0.063960 -0.012238 0.000000 1.000000 0.000000
0.110331 0.060858 0.038570 0.956505 0.000000 0.291716
0.150348 -0.063960 -0.384868 0.413648 -0.160427 -0.896191
0.145662 -0.063960 -0.371674 0.000000 -1.000000 0.000000
0.145836 -0.063960 -0.331710 0.000000 -1.000000 0.000000
0.145868 -0.063960 -0.290051 0.000000 -1.000000 0.000000
0.184846 -0.063960 -0.252198 -0.202178 -0.853558 0.480169
0.145659 -0.063960 -0.129410 0.496362 -0.695082 -0.520082
0.145650 -0.063960 -0.090870 0.000000 -1.000000 0.000000
0.147337 -0.063960 -0.050984 0.000000 -1.000000 0.000000
0.146977 -0.063960 -0.009994 0.000000 -1.000000 0.000000
0.146628 -0.063960 0.029771 0.000000 -1.000000 0.000000
0.146172 -0.063960 0.070483 0.000000 -1.000000 0.000000
0.145728 -0.063960 0.109945 0.000000 -1.000000 0.000000
0.163683 -0.063960 0.265500 -0.112606 -0.989803 -0.087234
0.148014 -0.063960 0.274482 -0.122886 -0.988786 -0.084858
0.145822 -0.063960 0.309742 0.000000 -1.000000 0.000000
0.146621 -0.063960 0.349023 0.000000 -1.000000 0.000000
0.149840 -0.060208 -0.385126 -0.544379 -0.138859 -0.827266
0.155575 -0.049335 -0.365952 0.626744 0.087142 -0.774337
0.146407 -0.061932 -0.275098 -0.625396 0.669340 0.401078
0.180597 -0.063706 -0.254248 -0.066111 0.697599 0.713432
0.145637 -0.061386 -0.129523 0.718069 0.000592 -0.695971
0.170280 -0.061548 -0.094172 0.783627 -0.072500 -0.616987
0.185510 -0.063928 0.060567 0.718708 -0.663951 -0.206465
0.165343 -0.059860 0.102815 0.873819 -0.305445 0.378345
0.150366 -0.063034 0.123677 0.710472 -0.271993 0.649037
0.163371 -0.060252 0.265386 -0.542968 0.000002 -0.839754
0.150509 -0.059344 0.273024 -0.451321 -0.000001 -0.892362
0.146406 -0.060342 0.379844 -0.064368 0.105949 0.992286
0.151523 -0.061836 0.385677 -0.215783 0.074453 0.973599
0.147628 -0.020021 -0.387182 0.319007 -0.001055 -0.947752
0.150502 -0.014869 -0.366080 0.986141 0.143538 0.083199
0.145821 0.005534 -0.325461 -0.231305 0.839959 0.490883
0.147532 -0.020185 -0.274529 -0.451301 -0.000000 0.892372
0.180583 -0.022210 -0.254257 -0.545207 -0.000346 0.838301
0.145626 -0.020272 -0.129534 0.726618 -0.002197 -0.687038
0.146862 0.004290 -0.092481 0.000000 1.000000 0.000000
0.146849 0.004290 -0.054117 0.000000 1.000000 0.000000
0.146596 0.004290 -0.012183 0.000000 1.000000 0.000000
0.146470 0.004290 0.026286 0.000000 1.000000 0.000000
0.146234 0.004290 0.065869 0.000000 1.000000 0.000000
0.150313 -0.019089 0.123747 0.794775 0.000000 0.606905
0.164369 -0.021703 0.264741 -0.542966 -0.000000 -0.839755
0.147534 -0.020186 0.274529 -0.451318 -0.000002 -0.892363
0.146870 0.004290 0.306562 0.000000 1.000000 0.000000
0.146461 -0.019481 0.370486 -0.769027 0.143374 0.622930
0.145993 0.020249 -0.386288 0.974845 0.172446 -0.141207
0.145790 0.020492 -0.371637 0.986561 0.147594 0.070098
0.145836 0.016845 -0.329478 -0.394343 0.000001 0.918963
0.146976 0.020684 0.328988 -0.394343 -0.000000 -0.918963
0.145802 0.020610 0.364344 0.374486 -0.000433 0.927233
0.186864 -0.063960 -0.369510 0.289261 0.937973 -0.191140
0.185701 -0.063960 -0.331712 0.000000 -1.000000 0.000000
0.187248 -0.063960 -0.290051 0.000000 -1.000000 0.000000
0.188758 -0.063960 -0.249533 -0.049022 -0.936098 0.348306
0.185675 -0.063960 -0.055615 0.000000 -1.000000 0.000000
0.187262 -0.063960 -0.050981 0.000000 -1.000000 0.000000
0.186295 -0.063960 -0.009994 0.000000 -1.000000 0.000000
0.187205 -0.063960 0.029773 0.000000 -1.000000 0.000000
0.215952 -0.063960 0.225162 -0.088556 -0.990999 -0.100390
0.188468 -0.063960 0.249159 -0.099561 -0.990765 -0.092047
0.186906 -0.063960 0.269099 0.000000 -1.000000 0.000000
0.187016 -0.063960 0.309744 0.000000 -1.000000 0.000000
0.185773 -0.063960 0.345659 0.473819 -0.530428 0.702952
0.186881 -0.060314 -0.369633 0.892700 0.185330 -0.410778
0.210516 -0.060079 -0.331207 0.799047 0.001536 -0.601267
0.186674 -0.061455 -0.249727 -0.781008 0.585482 0.217341
0.185778 -0.061681 -0.060099 0.953638 -0.215545 -0.210035
0.187659 -0.060057 0.058747 0.106804 -0.576840 0.809845
0.215510 -0.061419 0.225108 -0.827887 0.550869 -0.105573
0.188570 -0.059494 0.248194 -0.628543 -0.000000 -0.777775
0.186097 -0.060118 0.345505 0.477786 0.001634 0.878475
0.185616 -0.059048 0.350297 0.972274 -0.147569 -0.181403
0.189879 -0.018969 -0.351337 -0.683215 -0.158413 -0.712827
0.185837 0.005424 -0.304562 -0.240829 0.853144 0.462759
0.187144 0.004290 -0.292780 0.000000 1.000000 0.000000
0.186889 -0.019858 -0.249553 -0.628560 0.000000 0.777761
0.185866 -0.019122 -0.060037 0.020654 0.543566 -0.839112
0.186273 0.004290 -0.054121 0.000063 0.996892 -0.078774
0.187371 0.004290 -0.012183 0.000000 1.000000 0.000000
0.187075 -0.019499 0.059002 0.648044 0.034040 0.760842
0.215114 -0.020201 0.225505 -0.707092 -0.000000 -0.707122
0.186889 -0.019858 0.249553 -0.628542 -0.000001 -0.777775
0.185946 0.004290 0.266402 0.000000 1.000000 0.000000
0.190377 -0.019073 0.344315 0.965280 -0.246079 0.087633
0.190596 -0.021845 0.347259 0.968533 -0.146516 -0.201187
0.190132 0.020242 -0.359417 -0.657196 -0.135869 -0.741373
0.186701 0.018415 -0.308436 -0.485330 -0.000001 0.874331
0.209011 0.019555 -0.293489 -0.571257 0.000002 0.820771
0.194662 0.020871 0.303477 -0.571260 -0.000001 -0.820769
0.190583 0.020861 0.306282 -0.521793 -0.003664 -0.853064
0.187804 0.020719 0.362906 -0.010753 0.099267 0.995003
0.225781 -0.063960 -0.334534 -0.292651 -0.934424 -0.202994
0.227666 -0.063960 -0.331714 0.000000 -1.000000 0.000000
0.226561 -0.063960 -0.290051 0.000000 -1.000000 0.000000
0.227529 -0.063960 -0.249536 0.000000 -1.000000 0.000000
0.228675 -0.063960 -0.212715 -0.358748 -0.793626 0.491383
0.259402 -0.063960 -0.174284 -0.343368 -0.906553 0.245478
0.225666 -0.063960 -0.055615 0.000000 -1.000000 0.000000
0.227182 -0.063960 -0.050983 0.000000 -1.000000 0.000000
0.225615 -0.063960 -0.009995 0.000000 -1.000000 0.000000
0.225939 -0.063960 0.029771 0.000000 -1.000000 0.000000
0.254498 -0.063960 0.180427 -0.094939 -0.990717 -0.097298
0.230605 -0.063960 0.210129 -0.588109 -0.723486 -0.361518
0.225848 -0.063960 0.228886 0.000000 -1.000000 0.000000
0.227133 -0.063960 0.269101 0.000000 -1.000000 0.000000
0.226559 -0.063960 0.309744 0.000000 -1.000000 0.000000
0.229495 -0.059175 -0.338227 -0.553942 -0.142904 -0.820199
0.230409 -0.024765 -0.317629 0.932808 -0.002093 -0.360368
0.259583 -0.058977 -0.294318 0.665233 0.001639 -0.746634
0.225692 -0.062246 -0.214927 -0.294705 0.701051 0.649366
0.227443 -0.059924 -0.213175 -0.707077 -0.000000 0.707137
0.258655 -0.060495 -0.173780 -0.839757 -0.000001 0.542962
0.229004 -0.060519 -0.058500 0.000000 -0.927092 -0.374835
0.227038 -0.060519 0.058500 0.000000 -0.927092 0.374835
0.250595 -0.057710 0.185600 -0.778345 0.000301 -0.627837
0.230484 -0.063942 0.210135 -0.517318 -0.627872 -0.581515
0.259582 -0.058977 0.294318 0.963389 0.001226 0.268103
0.227858 -0.059355 0.335477 -0.568140 0.139209 0.811072
0.229130 -0.019630 -0.345089 0.033877 -0.098158 -0.994594
0.230061 -0.020487 -0.319841 0.956487 0.278712 0.086332
0.226352 0.005316 -0.275297 -0.313768 0.869644 0.381141
0.226172 -0.020367 -0.214446 -0.707076 -0.000002 0.707137
0.227133 -0.021904 -0.213485 -0.707078 0.000001 0.707135
0.259258 -0.020221 -0.172847 -0.839756 0.000001 0.542964
0.229448 -0.020390 -0.058500 0.000000 0.000000 -1.000000
0.225694 0.004290 -0.054120 -0.000000 0.986635 -0.162945
0.226205 0.004290 -0.012183 0.000000 1.000000 0.000000
0.225609 -0.020390 0.058500 0.000000 0.000000 1.000000
0.254317 -0.021431 0.180490 -0.839756 -0.000000 -0.542964
0.230124 -0.020442 0.210495 -0.707091 -0.000001 -0.707123
0.226159 0.004290 0.226812 0.000000 1.000000 0.000000
0.226104 0.004290 0.266403 0.000000 1.000000 0.000000
0.225607 -0.019018 0.326187 -0.606074 0.143456 0.782365
0.225727 0.014763 0.346744 0.939744 -0.052602 0.337808
0.228356 0.019611 -0.345780 0.523432 -0.001211 -0.852067
0.228014 0.020292 -0.333004 0.956634 0.149415 0.250053
0.227109 0.019329 -0.279870 -0.651373 -0.000001 0.758758
0.255430 0.019623 -0.254225 -0.724803 0.000002 0.688956
0.244669 0.020965 0.264795 -0.651388 -0.000000 -0.758745
0.227109 0.019327 0.279871 -0.651390 -0.000002 -0.758743
0.226959 0.020512 0.320136 -0.004482 0.066508 0.997776
0.226553 0.020075 0.346814 0.922379 -0.193307 0.334439
0.265614 -0.063960 -0.314622 0.702196 -0.711941 0.007814
0.265873 -0.063960 -0.290048 -0.000014 -0.108309 -0.994117
0.266298 -0.063960 -0.249536 0.000000 -1.000000 0.000000
0.266712 -0.063960 -0.210118 0.000000 -1.000000 0.000000
0.267114 -0.063960 -0.171758 0.000000 -1.000000 0.000000
0.284638 -0.063960 -0.129505 -0.396302 -0.904876 0.155385
0.265658 -0.063960 -0.055615 0.000000 -1.000000 0.000000
0.267105 -0.063960 -0.050983 0.000000 -1.000000 0.000000
0.266806 -0.063960 -0.009995 0.000000 -1.000000 0.000000
0.266515 -0.063960 0.029771 0.000000 -1.000000 0.000000
0.295219 -0.063960 0.100426 -0.658140 -0.633221 -0.407288
0.278264 -0.063960 0.140260 0.021012 -0.869462 -0.493553
0.269061 -0.063960 0.160072 -0.109645 -0.993901 -0.011823
0.265919 -0.063960 0.189214 0.000000 -1.000000 0.000000
0.266754 -0.063960 0.228888 0.000000 -1.000000 0.000000
0.265690 -0.063960 0.269101 0.000000 -1.000000 0.000000
0.265614 -0.063960 0.314622 0.555122 -0.831747 -0.006026
0.265880 -0.059075 -0.317835 0.954971 0.001800 -0.296694
0.269125 -0.060119 -0.294192 -0.499425 -0.147553 -0.853700
0.300411 -0.060523 -0.252529 0.963748 0.074855 -0.256097
0.265989 -0.059238 -0.162438 -0.839755 -0.000001 0.542965
0.282326 -0.060056 -0.132117 -0.892354 -0.000001 0.451335
0.270285 -0.060519 -0.058500 0.000000 -0.927092 -0.374835
0.266354 -0.060519 0.058500 0.000000 -0.927092 0.374835
0.295474 -0.061931 0.099523 -0.880654 -0.072046 -0.468250
0.275538 -0.059671 0.145538 -0.892361 -0.000000 -0.451322
0.270562 -0.059467 0.155365 -0.866645 -0.001037 -0.498925
0.289350 -0.025085 0.265044 0.206428 0.108685 0.972407
0.265654 -0.058973 0.290629 -0.316195 0.190196 0.929433
0.266531 -0.060658 0.315158 0.623455 -0.065267 0.779131
0.269842 -0.018974 -0.301595 -0.442331 -0.138691 -0.886063
0.275573 -0.021385 -0.279466 0.977009 0.145889 -0.155464
0.267447 0.005912 -0.236766 -0.461234 0.784272 0.414946
0.265648 0.004290 -0.214115 0.000000 1.000000 0.000000
0.266434 -0.019163 -0.161749 -0.839755 -0.000001 0.542966
0.282385 -0.020216 -0.131999 -0.892356 -0.000001 0.451333
0.269771 -0.020390 -0.058500 0.000000 0.000000 -1.000000
0.267090 0.004290 -0.054120 -0.000000 0.987107 -0.160064
0.266982 0.004290 -0.012183 0.000000 1.000000 0.000000
0.265931 -0.020390 0.058500 0.000000 0.000000 1.000000
0.295470 -0.020062 0.099534 -0.935004 -0.000000 -0.354638
0.275594 -0.021304 0.145427 -0.892361 0.000000 -0.451322
0.270505 -0.022382 0.155453 -0.865553 0.003459 -0.500806
0.265871 0.004290 0.185940 0.000000 1.000000 0.000000
0.266955 0.004290 0.226813 0.000000 1.000000 0.000000
0.266096 -0.019212 0.288427 0.668505 0.001656 0.743706
0.270215 -0.021666 0.308266 0.937175 -0.206122 -0.281455
0.270240 0.020268 -0.308312 -0.449176 -0.146174 -0.881404
0.270411 0.030632 -0.284415 0.978759 -0.000385 -0.205015
0.265858 0.020875 -0.243254 -0.724802 0.000001 0.688957
0.290419 0.018378 -0.213412 -0.790748 -0.000000 0.612142
0.285167 0.016501 0.220197 -0.790759 -0.000002 -0.612128
0.269853 0.019474 0.239052 -0.724791 0.000000 -0.688969
0.269341 0.020655 0.285436 0.685465 -0.000423 0.728106
0.270030 0.020378 0.312994 0.989143 -0.106650 0.101100
0.305834 -0.063960 -0.276419 0.000086 -0.113438 -0.993545
0.306827 -0.063960 -0.246869 -0.000047 -0.126423 -0.991976
0.306971 -0.063960 -0.210115 0.000000 -1.000000 0.000000
0.306831 -0.063960 -0.171755 0.000000 -1.000000 0.000000
0.306158 -0.063960 -0.129503 0.000000 -1.000000 0.000000
0.305770 -0.063960 -0.090869 0.000000 -1.000000 0.000000
0.307030 -0.063960 -0.050987 0.000000 -1.000000 0.000000
0.306125 -0.063960 -0.009995 0.000000 -1.000000 0.000000
0.307092 -0.063960 0.029773 0.000000 -1.000000 0.000000
0.305958 -0.063960 0.070478 0.000000 -1.000000 0.000000
0.306652 -0.063960 0.109945 0.000000 -1.000000 0.000000
0.307082 -0.063960 0.150205 0.000000 -1.000000 0.000000
0.305763 -0.063960 0.189214 0.000000 -1.000000 0.000000
0.305960 -0.063960 0.228887 0.000000 -1.000000 0.000000
0.305920 -0.063960 0.269099 0.000000 -1.000000 0.000000
0.309867 -0.059821 -0.275132 0.748594 0.002056 -0.663025
0.310418 -0.059605 -0.249563 -0.363235 -0.147570 -0.919937
0.335231 -0.059351 -0.204605 0.951440 0.235733 0.197971
0.322421 -0.059018 0.223725 0.832815 -0.552777 0.029267
0.305814 -0.059889 0.246401 0.158109 0.194902 0.967995
0.309735 -0.059363 0.266944 0.640557 -0.126278 0.757457
0.305797 -0.018973 -0.279598 0.746847 0.001665 -0.664994
0.306358 -0.019354 -0.254360 -0.387107 -0.144260 -0.910680
0.305985 0.005966 -0.184038 -0.532862 0.774000 0.342027
0.307108 0.004290 -0.172430 -0.066208 0.997294 0.031945
0.306904 0.004290 -0.131902 0.000000 1.000000 0.000000
0.306705 0.004290 -0.092482 0.000000 1.000000 0.000000
0.306515 0.004290 -0.054117 0.000000 1.000000 0.000000
0.305817 0.004290 -0.012183 0.000000 1.000000 0.000000
0.307305 0.004290 0.026288 0.000000 1.000000 0.000000
0.308528 0.004191 0.065812 -0.199999 0.978101 -0.057611
0.305699 0.004290 0.106422 0.000000 1.000000 0.000000
0.306645 0.004290 0.145770 0.000000 1.000000 0.000000
0.306283 0.008465 0.187900 -0.687411 0.359961 -0.630789
0.306671 -0.019498 0.244833 0.987731 0.000990 0.156164
0.306615 -0.019090 0.271533 -0.326728 0.147535 0.933532
0.309960 0.020625 -0.262094 -0.316270 -0.144030 -0.937672
0.310365 0.029015 -0.240206 0.995238 0.069394 -0.068450
0.306422 0.018908 -0.189509 -0.848663 0.000003 0.528934
0.316576 0.020658 -0.172716 -0.897170 0.000471 0.441686
0.334717 0.018972 -0.133613 -0.937750 0.000001 0.347310
0.344944 0.020852 0.105141 -0.967666 0.000853 -0.252232
0.329910 0.019751 0.145533 -0.897811 0.000000 -0.440382
0.309858 0.019350 0.183997 -0.848656 0.000002 -0.528945
0.306422 0.018906 0.189510 -0.848653 -0.000002 -0.528950
0.310368 0.017175 0.240170 0.795040 -0.000425 0.606556
0.308684 0.020572 0.266020 -0.317222 0.143349 0.937455
0.347097 -0.063960 -0.225757 0.197169 0.947867 -0.250343
0.350362 -0.063960 -0.199698 -0.154597 -0.773284 -0.614924
0.346549 -0.063960 -0.171756 0.000000 -1.000000 0.000000
0.347241 -0.063960 -0.129499 0.000000 -1.000000 0.000000
0.346281 -0.063960 -0.090871 0.000000 -1.000000 0.000000
0.346954 -0.063960 -0.050985 0.000000 -1.000000 0.000000
0.347314 -0.063960 -0.009993 0.000000 -1.000000 0.000000
0.345822 -0.063960 0.029774 0.000000 -1.000000 0.000000
0.345906 -0.063960 0.070480 0.000000 -1.000000 0.000000
0.345991 -0.063960 0.109944 0.000000 -1.000000 0.000000
0.345799 -0.063960 0.150209 0.000000 -1.000000 0.000000
0.345612 -0.063960 0.189215 0.000000 -1.000000 0.000000
0.347097 -0.063960 0.225757 0.197188 0.947871 0.250313
0.347882 -0.059667 -0.225152 0.840372 0.001644 -0.542007
0.350248 -0.059296 -0.200516 -0.175263 -0.145041 -0.973779
0.354323 -0.059597 -0.171564 0.369983 -0.238067 -0.898018
0.373889 -0.063185 -0.122758 0.615569 -0.780429 0.109569
0.381875 -0.059240 -0.090415 0.671086 0.025474 -0.740942
0.384600 -0.060148 0.085047 0.394053 -0.005528 0.919071
0.364719 -0.060900 0.144874 0.625715 0.036760 0.779185
0.350523 -0.061541 0.176481 0.998078 -0.035102 0.051065
0.346210 -0.059515 0.198205 -0.218491 0.148711 0.964441
0.345974 -0.059589 0.227969 0.369760 0.112026 0.922349
0.345973 -0.019386 -0.227959 0.823453 0.567367 0.004320
0.349414 -0.019688 -0.206173 -0.134736 -0.142707 -0.980551
0.360437 -0.020792 -0.155155 0.980481 0.016211 -0.195943
0.346091 0.010925 -0.099466 -0.954428 0.192079 0.228415
0.345758 0.005430 -0.086839 -0.497580 0.855274 0.144640
0.345935 0.004290 -0.054119 0.000000 1.000000 0.000000
0.346592 0.004290 -0.012182 0.000000 1.000000 0.000000
0.347512 0.004290 0.026287 0.000000 1.000000 0.000000
0.346236 0.004290 0.065871 -0.111715 0.993636 -0.014408
