ply
format ascii 1.0
comment SurfExtract output
element vertex 273
property float x
property float y
property float z
property float nx
property float ny
property float nz
end_header
-0.203750 -0.029616 -0.000001 -1.000000 0.000342 0.000803
-0.203750 0.029616 0.000001 -1.000000 -0.000342 -0.000804
-0.184797 -0.036750 -0.083910 -0.985680 -0.105035 0.131921
-0.198818 -0.036750 -0.043816 -0.668686 -0.738037 -0.090336
-0.199530 -0.036750 -0.039652 -0.189122 0.725899 -0.661289
-0.203512 -0.036750 0.000770 -0.983868 -0.090222 0.154477
-0.198981 -0.036750 0.040866 -0.983721 -0.089460 0.155853
-0.186726 -0.036750 0.080477 -0.984227 -0.092189 0.150991
-0.164071 -0.036750 0.120364 -0.197316 0.927709 0.316896
-0.183856 -0.032238 -0.087345 -0.891009 0.000000 -0.453986
-0.198916 -0.032445 -0.043788 -0.965923 0.000000 -0.258831
-0.199613 -0.032197 -0.040374 -0.570470 0.000000 -0.821318
-0.203665 -0.032061 -0.001613 -0.999583 0.000000 -0.028881
-0.200070 -0.031944 0.037486 -0.987690 0.000000 0.156425
-0.188430 -0.031891 0.076893 -0.933581 0.000000 0.358367
-0.166787 -0.031986 0.116758 -0.838657 0.000000 0.544660
-0.183856 0.007606 -0.087345 -0.891009 0.000000 -0.453986
-0.198916 0.008016 -0.043788 -0.965923 0.000000 -0.258831
-0.199613 0.008157 -0.040374 -0.570470 0.000000 -0.821318
-0.203665 0.007711 -0.001613 -0.999583 0.000000 -0.028881
-0.200070 0.008082 0.037486 -0.987690 0.000000 0.156425
-0.188430 0.007698 0.076893 -0.933581 0.000000 0.358367
-0.166787 0.008084 0.116758 -0.838657 0.000000 0.544661
-0.160284 -0.036750 -0.124624 -0.245195 0.934756 -0.257121
-0.163676 -0.036750 -0.119405 0.000000 -1.000000 0.000000
-0.162872 -0.036750 -0.078986 0.000000 -1.000000 0.000000
-0.162911 -0.036750 -0.039652 0.000000 -1.000000 0.000000
-0.163249 -0.036750 0.030556 0.000000 -1.000000 0.000000
-0.163685 -0.036750 0.040865 0.000000 -1.000000 0.000000
-0.163650 -0.036750 0.080479 0.000000 -1.000000 0.000000
-0.163245 -0.036750 0.120364 0.000000 -1.000000 0.000000
-0.129347 -0.036750 0.156879 -0.531012 -0.510903 0.676021
-0.160561 -0.031757 -0.125041 -0.777154 0.000000 -0.629311
-0.162029 -0.031803 -0.123229 -0.777151 0.000000 -0.629314
-0.143995 -0.033010 -0.083135 0.500001 -0.000001 -0.866025
-0.163422 -0.034113 -0.028815 -0.173639 0.000000 0.984809
-0.161962 -0.031812 0.028558 -0.173638 0.000000 -0.984810
-0.128842 -0.032030 0.074387 0.499999 -0.000000 0.866026
-0.149201 -0.032851 0.086141 0.500001 0.000001 0.866025
-0.163712 -0.031963 0.121150 -0.777154 -0.000001 0.629310
-0.130069 -0.031790 0.156490 -0.629317 0.000000 0.777149
-0.159098 0.008015 -0.126848 -0.777157 0.000000 -0.629307
-0.162029 0.008039 -0.123229 -0.777151 0.000000 -0.629314
-0.163309 0.036750 -0.082676 0.000000 1.000000 0.000000
-0.163505 0.007481 -0.028830 -0.173639 0.000000 0.984809
-0.161430 0.008023 0.028464 -0.173638 -0.000000 -0.984810
-0.163334 0.036750 0.036761 0.000000 1.000000 0.000000
-0.163310 0.036750 0.076630 0.000000 1.000000 0.000000
-0.163738 0.003730 0.121118 -0.777153 0.000001 0.629312
-0.130069 0.007862 0.156490 -0.629317 0.000000 0.777149
-0.118858 -0.036750 -0.165242 -0.476853 -0.552301 -0.683795
-0.123290 -0.036750 -0.159512 0.000000 -1.000000 0.000000
-0.099997 -0.036750 -0.119403 -0.534744 -0.607024 0.587853
-0.123328 -0.036750 -0.069240 0.000000 -1.000000 0.000000
-0.123474 -0.036750 -0.039652 0.000000 -1.000000 0.000000
-0.123382 -0.036750 0.000768 -0.638696 -0.767052 0.060820
-0.123094 -0.036750 0.040865 0.000000 -1.000000 0.000000
-0.094581 -0.036750 0.078557 -0.273062 -0.959344 0.071393
-0.123006 -0.036750 0.125724 0.000000 -1.000000 0.000000
-0.123285 -0.036750 0.161076 0.000000 -1.000000 0.000000
-0.119287 -0.032365 -0.165145 -0.552244 0.000000 -0.833682
-0.121462 -0.032384 -0.163460 -0.629311 0.000000 -0.777154
-0.103774 -0.034104 -0.123673 -0.766055 -0.000003 0.642775
-0.119160 -0.032921 -0.068797 0.499997 -0.000001 -0.866027
-0.123314 -0.032970 -0.021744 -0.607226 -0.071622 0.791295
-0.123489 -0.032212 -0.003555 -1.000000 0.000000 0.000000
-0.119928 -0.031995 0.069240 0.499999 0.000001 0.866026
-0.093891 -0.034387 0.080220 -0.742176 -0.008068 0.670156
-0.121329 -0.032619 0.126026 0.675627 -0.000002 -0.737243
-0.123609 -0.032406 0.161721 -0.629310 0.000000 0.777155
-0.119287 0.007836 -0.165145 -0.552244 0.000000 -0.833682
-0.121462 0.007840 -0.163460 -0.629311 0.000000 -0.777154
-0.103803 0.007589 -0.123708 -0.766056 -0.000001 0.642773
-0.119678 0.006930 -0.069096 0.500000 -0.000001 -0.866025
-0.121823 0.007265 -0.021447 -0.808994 -0.012761 0.587678
-0.123489 0.007519 -0.003633 -1.000000 0.000000 0.000000
-0.120408 0.007755 0.069518 0.499998 0.000002 0.866026
-0.096738 0.006442 0.076826 -0.766075 0.000001 0.642752
-0.121377 0.007380 0.125982 0.675627 0.000001 -0.737243
-0.123609 0.007846 0.161721 -0.629310 0.000000 0.777155
-0.082747 -0.036750 -0.184689 0.000000 -1.000000 0.000000
-0.083388 -0.036750 -0.159514 0.000000 -1.000000 0.000000
-0.083082 -0.036750 -0.119405 0.000000 -1.000000 0.000000
-0.083610 -0.036750 -0.078986 0.000000 -1.000000 0.000000
-0.083049 -0.036750 0.045957 0.139912 -0.962629 -0.231885
-0.083322 -0.036750 0.080478 0.000000 -1.000000 0.000000
-0.083068 -0.036750 0.120366 0.000000 -1.000000 0.000000
-0.083386 -0.036750 0.161075 0.000000 -1.000000 0.000000
-0.049045 -0.036750 0.197498 -0.317931 -0.625879 0.712176
-0.079298 -0.031807 -0.187507 -0.358357 0.000000 -0.933585
-0.059763 -0.032037 -0.162669 0.946499 -0.189153 0.261458
-0.083195 -0.033407 -0.099147 -0.766057 -0.000001 0.642773
-0.079473 -0.031925 -0.051679 0.859554 -0.000001 0.511045
-0.083329 -0.033254 0.045193 0.859555 -0.000000 -0.511043
-0.083704 -0.034584 0.090803 -0.702352 -0.020127 0.711545
-0.054682 -0.032752 0.150238 0.939693 0.000001 0.342020
-0.083213 -0.031761 0.185962 -0.432857 0.000000 0.901462
-0.053399 -0.032187 0.196341 -0.258827 0.000000 0.965924
-0.079298 0.007866 -0.187507 -0.358357 0.000000 -0.933585
-0.083625 0.036750 -0.163650 0.000000 1.000000 0.000000
-0.083345 0.007911 -0.099326 -0.766055 0.000000 0.642775
-0.078991 0.007464 -0.052488 0.859554 0.000000 0.511044
-0.083416 0.007837 0.045046 0.859555 0.000000 -0.511044
-0.083687 0.007112 0.090819 -0.686230 -0.000000 0.727385
-0.083322 0.036750 0.116767 0.000000 1.000000 0.000000
-0.083213 0.007855 0.185962 -0.432857 0.000000 0.901462
-0.053399 0.007960 0.196341 -0.258827 0.000000 0.965924
-0.042564 -0.036750 -0.199049 -0.704691 0.690940 -0.161282
-0.005626 -0.036750 -0.159512 -0.681764 -0.731568 0.002615
-0.043125 -0.036750 -0.114221 0.000000 -1.000000 0.000000
-0.042951 -0.036750 0.086205 0.000000 -1.000000 0.000000
-0.043459 -0.036750 0.118570 0.601681 -0.792545 0.099261
-0.043107 -0.036750 0.171022 0.000000 -1.000000 0.000000
-0.042805 -0.036750 0.199063 -0.175531 -0.696641 0.695615
-0.039342 -0.031766 -0.199776 -0.156425 0.000000 -0.987690
-0.005734 -0.032320 -0.163026 -1.000000 0.000000 0.000000
-0.042206 -0.032034 -0.116242 0.083174 -0.021030 -0.996313
-0.039388 -0.032501 0.086146 0.409052 -0.000001 -0.912511
-0.042199 -0.031969 0.116270 0.363234 -0.024138 0.931385
-0.042983 -0.031927 0.169602 0.216469 0.000001 -0.976290
-0.039342 -0.031766 0.199776 -0.156425 0.000000 0.987690
-0.039342 0.008029 -0.199776 -0.156425 0.000000 -0.987690
-0.005734 0.007417 -0.163290 -0.495535 0.868588 0.000000
-0.040064 0.008075 -0.116910 -0.297572 0.000000 -0.954699
-0.039705 0.007112 0.086004 0.409051 -0.000002 -0.912511
-0.041873 0.006816 0.116368 0.198773 -0.027406 0.979662
-0.038811 0.008245 0.170527 0.216468 0.000000 -0.976290
-0.043227 0.008007 0.199066 -0.258829 0.000000 0.965923
-0.003679 -0.036750 -0.199050 0.000000 -1.000000 0.000000
-0.003580 -0.036750 -0.159512 0.000000 -1.000000 0.000000
-0.003483 -0.036750 -0.119403 0.000000 -1.000000 0.000000
-0.002954 -0.036750 0.095632 0.000000 -0.983221 -0.182416
-0.003720 -0.036750 0.120366 0.000000 -1.000000 0.000000
0.000399 -0.036750 0.161075 -0.702711 -0.711476 -0.000247
-0.003466 -0.036750 0.200622 0.000000 -1.000000 0.000000
-0.000002 -0.034953 -0.203750 0.000043 0.000015 -1.000000
0.001009 -0.032132 -0.203697 0.051961 0.000000 -0.998649
-0.003695 -0.032068 -0.094924 0.042364 0.000289 0.999102
0.000528 -0.031860 0.094770 -0.038294 0.000001 -0.999267
-0.003163 -0.033068 0.123514 -0.058122 0.000001 0.998310
0.000000 -0.032258 0.156741 -1.000000 0.000000 0.000000
-0.003681 -0.031993 0.203557 -0.052322 0.000000 0.998630
0.000002 0.034953 -0.203750 -0.000043 -0.000015 -1.000000
0.001009 0.007582 -0.203697 0.051961 0.000000 -0.998649
-0.003590 0.036750 -0.163648 0.000000 1.000000 0.000000
-0.003539 0.007065 -0.094926 0.030786 -0.000275 0.999526
0.000506 0.007263 0.094771 -0.038295 0.000001 -0.999267
-0.003007 0.006241 0.123523 -0.058120 0.000001 0.998310
0.000000 0.007241 0.156859 -1.000000 0.000000 0.000000
-0.003681 0.007549 0.203557 -0.052322 0.000000 0.998630
0.036258 -0.036750 -0.199049 0.000092 -0.091158 -0.995836
0.036321 -0.036750 -0.159512 0.000000 -1.000000 0.000000
0.036315 -0.036750 -0.119404 0.000000 -1.000000 0.000000
0.045612 -0.036750 -0.083349 -0.214103 -0.964992 0.151496
0.057053 -0.036750 0.075665 -0.182538 -0.969704 -0.162342
0.040402 -0.036750 0.086206 -0.232009 -0.961346 -0.148278
0.036783 -0.036750 0.120367 0.000000 -1.000000 0.000000
0.036307 -0.036750 0.161075 0.000000 -1.000000 0.000000
0.036609 -0.036750 0.199844 -0.000012 -0.790031 0.613067
0.040193 -0.032053 -0.199642 0.156429 0.000000 -0.987689
0.045670 -0.032771 -0.125479 0.936980 0.001300 0.349381
0.036282 -0.032741 -0.087614 -0.337987 -0.000001 0.941151
0.044565 -0.032528 -0.083587 -0.477725 -0.000000 0.878510
0.056242 -0.036274 0.076231 -0.555232 -0.566282 -0.609132
0.040412 -0.032082 0.085845 -0.477722 -0.000002 -0.878511
0.043419 -0.033871 0.119294 0.937492 -0.347928 0.007367
0.054524 -0.031887 0.196039 0.258828 0.000000 0.965924
0.036467 -0.031913 0.200232 0.156422 0.000000 0.987690
0.040193 0.007919 -0.199642 0.156429 0.000000 -0.987689
0.036425 0.036750 -0.163648 0.000000 1.000000 0.000000
0.036738 0.006875 -0.087451 -0.337987 0.000000 0.941151
0.044658 0.007049 -0.083536 -0.477722 -0.000002 0.878511
0.056235 0.005489 0.076237 -0.606219 0.000001 -0.795298
0.040685 0.007513 0.085697 -0.477723 -0.000000 -0.878511
0.036895 0.036750 0.116767 0.000000 1.000000 0.000000
0.036441 0.036750 0.156879 0.000000 1.000000 0.000000
0.036467 0.007885 0.200232 0.156427 0.000000 0.987689
0.076503 -0.036750 -0.184687 0.000000 -1.000000 0.000000
0.077249 -0.036750 -0.159510 0.000000 -1.000000 0.000000
0.076698 -0.036750 -0.093870 0.000000 -1.000000 0.000000
0.076843 -0.036750 -0.078986 0.000000 -1.000000 0.000000
0.085990 -0.036750 -0.040812 -0.410108 -0.905075 0.112473
0.091219 -0.036750 0.025745 -0.612662 -0.700310 -0.366348
0.080089 -0.036750 0.051008 -0.142846 -0.965818 -0.216310
0.076484 -0.036750 0.080478 0.000000 -1.000000 0.000000
0.079748 -0.036750 0.156037 -0.127961 -0.987952 -0.087043
0.077002 -0.036750 0.161076 0.000000 -1.000000 0.000000
0.080795 -0.032285 -0.186933 0.358364 0.000000 -0.933582
0.079517 -0.031919 -0.155768 -0.461767 -0.000002 0.887001
0.079889 -0.033044 -0.095207 -0.455373 0.055356 -0.888578
0.076644 -0.032358 -0.055676 -0.817912 -0.000001 0.575343
0.084178 -0.032476 -0.043460 -0.896153 0.000001 0.443745
0.091242 -0.032831 0.025624 -0.953406 0.000000 -0.301689
0.080540 -0.033315 0.050138 -0.817912 0.000000 -0.575343
0.078980 -0.033166 0.095154 0.291990 -0.042656 0.955470
0.080468 -0.032455 0.155274 -0.461715 -0.000004 -0.887028
0.078445 -0.032798 0.156327 -0.461717 -0.000003 -0.887027
0.080795 0.007573 -0.186933 0.358365 0.000000 -0.933582
0.076495 0.007316 -0.157342 -0.461769 0.000001 0.887000
0.079465 0.007237 -0.094793 0.009794 -0.010540 -0.999897
0.076265 0.007314 -0.056215 -0.817912 -0.000001 0.575344
0.084340 0.007176 -0.043132 -0.896153 -0.000000 0.443746
0.091095 0.006374 0.026091 -0.953406 0.000001 -0.301690
0.079869 0.007738 0.051091 -0.817912 -0.000000 -0.575344
0.079465 0.007237 0.094793 0.009763 -0.010533 0.999897
0.080533 0.008121 0.155240 -0.461717 -0.000000 -0.887027
0.077476 0.007891 0.156831 -0.461712 -0.000003 -0.887030
0.116568 -0.036750 -0.165032 0.000000 -1.000000 0.000000
0.117151 -0.036750 -0.159512 0.000000 -1.000000 0.000000
0.116911 -0.036750 -0.119403 0.000000 -1.000000 0.000000
0.116474 -0.036750 -0.078987 0.000000 -1.000000 0.000000
0.116902 -0.036750 -0.039652 0.550733 -0.739215 -0.387626
0.117009 -0.036750 0.000770 0.000000 -1.000000 0.000000
0.117110 -0.036750 0.038816 0.695573 -0.188163 0.693378
0.116649 -0.036750 0.080480 0.000000 -1.000000 0.000000
0.116958 -0.036750 0.120367 0.000000 -1.000000 0.000000
0.116901 -0.036750 0.161076 0.000000 -1.000000 0.000000
0.117981 -0.031765 -0.165993 0.580557 0.000000 -0.814220
0.121144 -0.032054 -0.163717 0.602755 -0.015228 -0.797781
0.145330 -0.032976 -0.083907 0.500005 -0.000002 0.866023
0.120192 -0.031871 -0.069393 0.500009 0.000002 0.866020
0.117055 -0.032526 -0.039451 0.939688 0.000000 -0.342033
0.120802 -0.032248 0.025770 0.973035 -0.000001 0.230660
0.117341 -0.031755 0.038664 0.939688 -0.000000 0.342033
0.135207 -0.031976 0.078062 0.832481 0.080179 -0.548222
0.130608 -0.031795 0.156053 0.629315 0.000000 0.777150
0.117981 -0.031765 0.165993 0.580557 0.000000 0.814220
0.117981 0.008047 -0.165993 0.580557 0.000000 -0.814220
0.121192 0.005845 -0.163678 0.624426 0.001432 -0.781083
0.117234 0.036750 -0.123313 0.000000 1.000000 0.000000
0.120725 0.007237 -0.069700 0.827386 0.073491 0.556805
0.117037 0.007706 -0.039500 0.939689 -0.000001 -0.342031
0.120957 0.007804 0.025116 0.973035 -0.000001 0.230658
0.118082 0.005543 0.036627 0.724302 0.201155 0.659487
0.117019 0.036750 0.076631 0.000000 1.000000 0.000000
0.116485 0.036750 0.116767 0.000000 1.000000 0.000000
0.117981 0.008047 0.165993 0.580557 0.000000 0.814220
0.157087 -0.036750 -0.129270 0.660501 -0.377866 -0.648811
0.156710 -0.036750 -0.119404 0.000000 -1.000000 0.000000
0.157071 -0.036750 -0.078985 0.000000 -1.000000 0.000000
0.156453 -0.036750 -0.024768 0.000000 -1.000000 0.000000
0.157073 -0.036750 0.000770 0.000000 -1.000000 0.000000
0.160644 -0.036750 0.070810 -0.675775 -0.731765 -0.088587
0.156814 -0.036750 0.080478 0.000000 -1.000000 0.000000
0.156632 -0.036750 0.120365 0.000000 -1.000000 0.000000
0.157154 -0.032344 -0.129250 0.777156 0.000000 -0.629308
0.165421 -0.031921 -0.118862 0.838655 0.000000 -0.544663
0.156263 -0.032688 -0.078567 -0.887001 0.000002 0.461769
0.156608 -0.031866 -0.027614 -0.173639 -0.000000 -0.984809
0.156608 -0.031866 0.027614 -0.173637 -0.000000 0.984810
0.160638 -0.033698 0.069182 -0.807435 -0.188809 -0.558927
0.156263 -0.032687 0.078567 -0.887001 0.000002 -0.461767
0.160561 -0.031757 0.125041 0.777154 0.000000 0.629311
0.157154 0.007998 -0.129250 0.777156 0.000000 -0.629308
0.157143 0.036750 -0.123315 0.000000 1.000000 0.000000
0.156418 0.007383 -0.078270 -0.887001 0.000002 0.461768
0.161166 0.008211 -0.028417 -0.173638 -0.000000 -0.984810
0.156888 0.006908 0.027663 -0.173638 0.000000 0.984810
0.160132 0.005564 0.070405 -0.946103 -0.050592 -0.319889
0.156418 0.007383 0.078270 -0.887000 -0.000000 -0.461771
0.159585 0.008019 0.126246 0.777157 0.000000 0.629307
0.197140 -0.036750 -0.048980 0.192380 0.791646 -0.579902
0.196713 -0.036750 -0.039652 0.000000 -1.000000 0.000000
0.197138 -0.036750 0.000770 0.000000 -1.000000 0.000000
0.196334 -0.036750 0.040866 0.000000 -1.000000 0.000000
0.197495 -0.032230 -0.049091 0.965922 -0.000000 -0.258832
0.199613 -0.032197 -0.040374 0.570470 0.000000 -0.821318
0.201139 -0.032231 0.030735 0.987690 0.000000 0.156427
0.199543 -0.031803 0.040817 0.987231 0.000000 0.159296
0.197495 0.007963 -0.049091 0.965922 0.000000 -0.258832
0.199613 0.008156 -0.040374 0.570471 0.000000 -0.821318
0.201139 0.008156 0.030735 0.987689 0.000000 0.156427
0.199543 0.008047 0.040817 0.987231 0.000000 0.159296
