ply
format ascii 1.0
comment SurfExtract output
element vertex 836
property float x
property float y
property float z
property float nx
property float ny
property float nz
end_header
-0.362135 -0.092138 -0.143198 0.000000 -1.000000 0.000000
-0.358518 -0.092138 -0.121709 -0.546594 -0.746145 0.380135
-0.362798 -0.092138 -0.080180 0.000000 -1.000000 0.000000
-0.362620 -0.092138 -0.039796 0.000000 -1.000000 0.000000
-0.362145 -0.092138 0.001503 0.000000 -1.000000 0.000000
-0.361681 -0.092138 0.041500 0.000000 -1.000000 0.000000
-0.361528 -0.092138 0.078244 -0.000181 -0.840494 0.541821
-0.361910 -0.092138 0.121707 0.000000 -1.000000 0.000000
-0.362567 -0.092138 0.161788 0.000000 -1.000000 0.000000
-0.339454 -0.092138 0.205986 -0.548026 -0.728226 -0.411527
-0.328277 -0.088187 -0.233984 -0.992102 0.000062 -0.125433
-0.358190 -0.074007 -0.184663 -0.802468 0.189867 0.565682
-0.358611 -0.088476 -0.150482 0.035652 0.168135 -0.985119
-0.359955 -0.088976 -0.121966 -0.595105 -0.168118 0.785867
-0.361195 -0.091268 -0.067212 -0.460618 -0.880190 0.114442
-0.362437 -0.087533 0.079520 -0.061269 -0.162490 0.984806
-0.358426 -0.092126 0.126838 0.109523 -0.489903 0.864870
-0.361710 -0.087928 0.157442 -0.714636 0.164946 -0.679771
-0.343233 -0.091244 0.211289 0.262346 -0.448114 0.854616
-0.333180 -0.048247 -0.226824 -0.996028 -0.085711 -0.024142
-0.358826 -0.047723 -0.183622 -0.894576 -0.000442 -0.446916
-0.359148 -0.047773 -0.143555 0.035650 0.168138 -0.985119
-0.360930 -0.047342 -0.113880 -0.564647 -0.168050 0.808043
-0.361742 -0.048609 -0.059580 -0.864763 -0.129243 0.485264
-0.362956 -0.037378 0.051716 -0.938945 -0.012268 -0.343849
-0.360502 -0.051012 0.085666 -0.013368 -0.338004 0.941050
-0.361999 -0.048045 0.134431 0.020097 -0.168120 0.985562
-0.358398 -0.047691 0.163999 -0.730255 0.168077 -0.662176
-0.338138 -0.050897 0.216366 -0.850161 0.213660 -0.481224
-0.338416 0.002100 -0.219003 -0.823316 -0.567361 0.015904
-0.358832 -0.007837 -0.183642 -0.894578 0.000456 -0.446912
-0.358224 -0.008132 -0.136755 0.035820 0.168144 -0.985111
-0.359052 -0.007242 -0.104503 -0.529728 -0.169061 0.831148
-0.362985 -0.011710 -0.053455 -0.822300 -0.213788 0.527368
-0.323310 0.022333 -0.020348 0.988533 0.097475 0.115332
-0.323601 0.019237 -0.002360 0.654853 0.753572 -0.057415
-0.362869 -0.007746 0.052479 -0.990400 -0.000546 0.138231
-0.359709 -0.007883 0.093025 -0.026177 -0.168195 0.985406
-0.362908 -0.008084 0.141266 0.020087 -0.168123 0.985561
-0.358443 -0.007783 0.174300 -0.741440 0.166935 -0.649922
-0.333317 -0.010196 0.221749 -0.821514 0.166938 -0.545204
-0.325095 0.002080 0.237009 -0.044576 -0.198954 0.978995
-0.343414 0.051927 -0.210758 -0.988124 -0.134472 0.074356
-0.358442 0.032186 -0.178620 0.064166 0.172173 -0.982975
-0.361909 0.032439 -0.160970 -0.805940 0.440772 -0.395198
-0.358732 0.030873 -0.096817 -0.504922 -0.162147 0.847798
-0.360666 0.030625 -0.082145 -0.008478 0.365600 -0.930734
-0.323299 0.032101 -0.020685 0.998786 0.006087 0.048889
-0.323953 0.031908 0.001114 0.999861 0.000000 -0.016691
-0.362977 0.029349 0.051524 -0.720274 -0.163892 0.674051
-0.361980 0.030268 0.099427 0.085114 -0.343670 0.935225
-0.358299 0.030508 0.117261 -0.579299 0.164713 -0.798300
-0.358217 0.030437 0.184286 -0.975730 0.171801 -0.135777
-0.350680 0.037486 0.197437 -0.242920 -0.190223 0.951212
-0.325466 0.032578 0.237860 -0.803114 -0.000186 0.595825
-0.343869 0.069530 -0.210394 -0.538679 0.763654 -0.355890
-0.359048 0.069715 -0.172206 -0.011520 0.897821 -0.440209
-0.361741 0.069862 -0.160987 0.000000 1.000000 0.000000
-0.362319 0.069862 -0.122527 0.000356 0.256438 -0.966561
-0.358177 0.068808 -0.078347 -0.481122 0.794431 -0.370677
-0.362510 0.069862 -0.042053 0.000000 1.000000 0.000000
-0.362445 0.069862 -0.002512 0.000000 1.000000 0.000000
-0.362088 0.069862 0.037948 0.000000 1.000000 0.000000
-0.361736 0.069862 0.077157 0.000000 1.000000 0.000000
-0.359334 0.068346 0.126058 -0.625352 0.345547 -0.699665
-0.353776 0.069862 0.189675 -0.176393 0.933331 -0.312696
-0.349232 0.069851 0.201363 -0.745420 0.616006 -0.254726
-0.325470 0.068624 0.237866 -0.509215 0.763815 0.396592
-0.285321 -0.092138 -0.284578 -0.587163 -0.439109 -0.680017
-0.319522 -0.092138 -0.243337 0.000193 -0.783070 -0.621934
-0.322571 -0.092138 -0.239778 -0.301206 0.895756 -0.326951
-0.322455 -0.092138 -0.189392 0.000000 -1.000000 0.000000
-0.322764 -0.092138 -0.160033 0.000000 -1.000000 0.000000
-0.321641 -0.092138 -0.119507 0.000000 -1.000000 0.000000
-0.322385 -0.092138 -0.080181 0.000000 -1.000000 0.000000
-0.322831 -0.092138 -0.039794 0.000000 -1.000000 0.000000
-0.322994 -0.092138 0.001503 0.000000 -1.000000 0.000000
-0.321394 -0.092138 0.041499 0.000000 -1.000000 0.000000
-0.321571 -0.092138 0.080254 0.000000 -1.000000 0.000000
-0.322924 -0.092138 0.121709 0.000000 -1.000000 0.000000
-0.322561 -0.092138 0.161784 0.000000 -1.000000 0.000000
-0.322209 -0.092138 0.200552 0.000000 -1.000000 0.000000
-0.308921 -0.092138 0.250313 -0.555552 -0.709934 -0.432845
-0.283523 -0.087962 -0.283651 0.370871 0.173241 -0.912383
-0.318877 -0.087933 -0.243343 0.246068 0.173232 -0.953646
-0.321693 -0.087837 -0.242934 -0.700593 0.002753 -0.713556
-0.320236 -0.087150 -0.193464 0.259909 0.164894 -0.951450
-0.283923 -0.087831 -0.074260 0.970783 0.000000 0.239960
-0.286605 -0.088354 0.060748 0.647844 -0.083533 0.757179
-0.283167 -0.087220 0.077315 0.901870 -0.195747 -0.385115
-0.322629 -0.087178 0.174161 -0.650510 -0.036212 0.758634
-0.322522 -0.088008 0.220526 0.231070 -0.169312 0.958092
-0.308557 -0.087996 0.249847 -0.870685 0.173224 -0.460326
-0.303121 -0.022944 -0.265716 -0.981144 -0.051247 -0.186362
-0.318717 -0.048060 -0.236147 0.213636 0.166945 -0.962543
-0.318832 -0.048559 -0.186402 0.263507 0.164420 -0.950542
-0.283198 -0.048914 -0.077194 0.971723 0.019340 0.235331
-0.285507 -0.047850 0.060748 0.208915 -0.035731 0.977281
-0.283198 -0.048912 0.077190 0.971727 0.019364 -0.235313
-0.318174 -0.048180 0.182258 -0.868765 0.000343 0.495225
-0.322747 -0.047259 0.197029 -0.739810 0.166522 -0.651884
-0.303233 -0.048637 0.254340 -0.886782 0.166959 -0.430979
-0.308261 0.022663 -0.259706 -0.989712 -0.001568 -0.143067
-0.318638 -0.007705 -0.229065 0.246171 0.169311 -0.954324
-0.322765 -0.007404 -0.200364 -0.749944 -0.166516 0.640200
-0.298959 0.022309 -0.124727 0.918691 0.014471 0.394712
-0.308127 0.020695 -0.099628 0.875129 0.187905 0.445917
-0.318462 0.022355 -0.058824 0.968573 0.052992 0.243020
-0.320938 0.019237 -0.042645 0.676222 0.716972 0.169336
-0.321736 0.019237 -0.002360 0.000000 1.000000 0.000000
-0.321533 0.022816 0.038867 0.987529 0.133008 -0.084236
-0.313703 0.019237 0.078843 0.712035 0.696760 -0.086789
-0.301069 0.022327 0.119245 0.799696 0.245944 -0.547721
-0.322838 -0.007967 0.184861 0.235118 -0.168207 0.957301
-0.318593 -0.010882 0.201607 -0.742906 0.169382 -0.647611
-0.322235 0.007640 0.237321 0.228368 -0.171309 0.958385
-0.292426 -0.007507 0.277142 -0.134230 -0.201280 0.970293
-0.313511 0.061912 -0.253279 -0.989788 -0.107650 -0.093442
-0.322185 0.030214 -0.223279 0.233262 0.168767 -0.957657
-0.321929 0.032720 -0.189301 -0.706147 -0.168065 0.687830
-0.299081 0.032509 -0.124411 0.931487 0.001784 0.363771
-0.308184 0.030850 -0.099443 0.955110 -0.000002 0.296250
-0.318454 0.032358 -0.058874 0.986079 -0.000004 0.166275
-0.321594 0.032598 -0.038271 0.994975 0.000000 0.100126
-0.322862 0.027905 0.025661 0.994975 -0.000000 -0.100123
-0.321619 0.032049 0.038013 0.994976 -0.000002 -0.100118
-0.313390 0.028121 0.081773 0.967672 0.033142 -0.250026
-0.300699 0.031713 0.120207 0.933184 -0.000002 -0.359399
-0.322646 0.032412 0.191853 0.257435 -0.170488 0.951137
-0.318948 0.032227 0.213776 -0.787578 0.169137 -0.592548
-0.322613 0.032526 0.241619 -0.405698 -0.004476 0.913996
-0.292537 0.032067 0.277372 -0.730096 0.000436 0.683345
-0.313576 0.069695 -0.253342 -0.795270 0.603002 -0.062723
-0.318927 0.068681 -0.215691 0.059116 0.920803 -0.385521
-0.322496 0.069862 -0.203077 0.000000 1.000000 0.000000
-0.321437 0.069862 -0.160989 0.000000 1.000000 0.000000
-0.322590 0.069862 -0.122524 0.000000 1.000000 0.000000
-0.321560 0.069862 -0.082829 0.000000 1.000000 0.000000
-0.322128 0.069862 -0.042054 0.510098 0.857813 -0.062897
-0.322936 0.069268 0.024931 0.821229 0.570525 -0.009229
-0.322940 0.069862 0.037947 0.477029 0.876773 -0.060925
-0.321444 0.069862 0.077154 0.000000 1.000000 0.000000
-0.321462 0.069862 0.117137 0.000000 1.000000 0.000000
-0.322920 0.069862 0.157759 0.000000 1.000000 0.000000
-0.322218 0.069535 0.198197 0.080861 0.844668 0.529148
-0.322643 0.068508 0.241683 -0.505381 0.763475 0.402114
-0.291539 0.068885 0.278423 -0.807557 0.589481 0.019082
-0.282876 -0.092138 -0.283219 -0.114288 -0.911422 -0.395283
-0.281650 -0.092138 -0.278796 0.000000 -1.000000 0.000000
-0.278511 -0.092138 -0.238169 -0.557822 -0.750256 -0.354894
-0.281374 -0.092138 -0.199321 0.000000 -1.000000 0.000000
-0.283013 -0.092138 -0.160034 0.000000 -1.000000 0.000000
-0.282482 -0.092138 -0.119509 0.000000 -1.000000 0.000000
-0.282218 -0.092138 -0.082466 0.571736 -0.798611 0.187982
-0.282316 -0.092138 -0.033184 0.000000 -1.000000 0.000000
-0.282064 -0.092138 0.001503 0.000000 -1.000000 0.000000
-0.282864 -0.092138 0.041499 0.000000 -1.000000 0.000000
-0.282946 -0.092138 0.086261 0.000000 -1.000000 0.000000
-0.282238 -0.092138 0.121709 0.000000 -1.000000 0.000000
-0.282555 -0.092138 0.161784 0.000000 -1.000000 0.000000
-0.282858 -0.092138 0.200551 0.000000 -1.000000 0.000000
-0.282716 -0.092138 0.241585 0.000000 -1.000000 0.000000
-0.273433 -0.092138 0.291307 -0.564065 -0.688540 -0.455789
-0.281790 -0.089437 -0.283226 0.370875 0.173234 -0.912382
-0.279731 -0.088243 -0.282162 0.370875 0.173230 -0.912383
-0.278377 -0.088662 -0.238603 -0.835910 -0.548223 -0.026578
-0.243137 -0.091743 -0.164348 0.432172 0.737629 0.518778
-0.263475 -0.088741 -0.129234 0.902215 -0.000003 0.431287
-0.278237 -0.089873 -0.093331 0.909852 -0.048331 0.412109
-0.282705 -0.087325 -0.079186 0.967277 -0.007124 0.253625
-0.282719 -0.088354 0.060748 0.000000 -0.954992 0.296630
-0.281329 -0.087417 0.083684 0.952254 -0.000003 -0.305306
-0.269200 -0.092105 0.117187 0.655989 -0.604831 -0.451506
-0.244972 -0.091420 0.161555 0.433662 0.735913 -0.519970
-0.279309 -0.090143 0.256554 0.403219 -0.168120 0.899528
-0.273604 -0.089227 0.291116 -0.926117 0.260507 -0.272844
-0.263645 -0.032797 -0.304855 -0.949830 -0.099295 -0.296587
-0.278827 -0.047532 -0.274262 0.386839 0.166091 -0.907066
-0.282543 -0.050989 -0.239006 -0.828688 -0.162097 0.535724
-0.243518 -0.048045 -0.163768 0.835492 -0.000001 0.549503
-0.263235 -0.049459 -0.129736 0.902214 -0.000002 0.431289
-0.278222 -0.049276 -0.093377 0.952257 -0.000001 0.305298
-0.282679 -0.048752 -0.079292 0.965463 0.000559 0.260539
-0.281713 -0.047850 0.060748 0.000000 0.000000 1.000000
-0.282052 -0.049046 0.081430 0.956006 -0.000341 -0.293346
-0.268233 -0.048600 0.119279 0.905924 -0.002559 -0.423432
-0.245311 -0.047771 0.161040 0.835509 0.000001 -0.549477
-0.282316 -0.047779 0.265820 0.392010 -0.170559 0.904012
-0.268179 -0.049810 0.296447 -0.925614 0.173853 -0.336174
-0.268427 0.001457 -0.300729 -0.661545 -0.071435 -0.746495
-0.282068 -0.008984 -0.268431 0.371099 0.169315 -0.913027
-0.249572 0.022626 -0.206351 0.763658 -0.000001 0.645621
-0.279471 0.022327 -0.163820 0.871737 0.003038 0.489964
-0.281398 0.020452 -0.160305 0.810948 0.250360 0.528851
-0.278200 -0.009584 -0.093448 0.952259 -0.000002 0.305292
-0.281988 -0.007727 -0.081631 0.955491 -0.004417 0.294988
-0.282592 0.019237 -0.038107 0.000000 1.000000 0.000000
-0.282568 0.019237 -0.002360 0.000000 1.000000 0.000000
-0.282606 -0.009222 0.060748 0.000000 0.000000 1.000000
-0.282784 -0.010802 0.078865 0.963161 -0.001204 -0.268924
-0.282268 0.019237 0.117614 0.000000 1.000000 0.000000
-0.279616 0.019237 0.157181 0.591292 0.541012 -0.598064
-0.282328 -0.002612 0.233953 -0.965604 -0.005477 0.259959
-0.279033 -0.008974 0.271601 0.403351 -0.168138 0.899465
-0.282621 0.011365 0.276882 0.351129 -0.169870 0.920789
-0.249044 0.022279 0.316928 -0.198315 -0.002415 0.980135
-0.273241 0.037307 -0.296318 -0.963627 -0.001796 -0.267247
-0.279151 0.032769 -0.259377 0.413444 0.166819 -0.895117
-0.250071 0.032817 -0.205761 0.763660 0.000001 0.645618
-0.278119 0.032165 -0.166122 0.850236 -0.003567 0.526390
-0.280069 0.030161 -0.162730 0.876954 0.000000 0.480574
-0.281651 0.030713 0.159839 0.876955 -0.000001 -0.480572
-0.282375 0.031976 0.233878 -0.760521 -0.001242 0.649312
-0.278917 0.032395 0.237924 -0.762413 0.000880 0.647091
-0.281943 0.032159 0.280495 0.361238 -0.169899 0.916865
-0.249056 0.031730 0.316949 -0.607727 -0.002162 0.794143
-0.273270 0.069861 -0.296373 -0.799776 0.599873 -0.022602
-0.280830 0.069307 -0.253316 0.233860 0.747990 -0.621144
-0.281503 0.069862 -0.241301 0.000000 1.000000 0.000000
-0.281575 0.069862 -0.203075 0.000000 1.000000 0.000000
-0.282969 0.068206 -0.157437 0.841262 0.128656 0.525097
-0.282017 0.069862 0.159659 0.590400 0.545321 -0.595024
-0.282642 0.069862 0.197057 0.000000 1.000000 0.000000
-0.279376 0.068830 0.237429 -0.545396 0.681782 0.487561
-0.282778 0.069862 0.277109 0.000000 1.000000 0.000000
-0.249075 0.069529 0.316980 -0.449303 0.679987 0.579435
-0.209275 -0.092138 -0.343577 -0.449301 0.863934 -0.227478
-0.242708 -0.092138 -0.319273 -0.704542 0.400262 0.586013
-0.242120 -0.092138 -0.278800 -0.497278 -0.822866 0.274965
-0.242656 -0.092138 -0.239773 0.000000 -1.000000 0.000000
-0.242961 -0.092138 -0.199321 0.000000 -1.000000 0.000000
-0.241501 -0.092138 -0.059830 0.000000 -0.894282 -0.447504
-0.241445 -0.092138 -0.039794 0.000000 -1.000000 0.000000
-0.242913 -0.092138 0.001503 0.000000 -1.000000 0.000000
-0.242581 -0.092138 0.041499 0.000000 -1.000000 0.000000
-0.242735 -0.092138 0.166671 0.230837 -0.878225 -0.418850
-0.241860 -0.092138 0.200555 0.000000 -1.000000 0.000000
-0.242443 -0.092138 0.241586 0.000000 -1.000000 0.000000
-0.243005 -0.092138 0.281198 0.000000 -1.000000 0.000000
-0.233350 -0.092138 0.327617 -0.967299 -0.223083 0.120693
-0.213503 -0.077458 -0.341609 -0.923290 -0.232176 -0.305989
-0.242157 -0.088637 -0.318458 0.489218 0.173233 -0.854784
-0.242926 -0.091099 -0.278915 -0.766460 -0.457952 0.450354
-0.209682 -0.087235 -0.205318 0.707131 -0.000000 0.707083
-0.239096 -0.089342 -0.170369 0.416159 0.724825 0.549037
-0.239970 -0.088353 -0.060751 0.000000 -0.954989 -0.296643
-0.241914 -0.088354 0.060748 0.000000 -0.954992 0.296630
-0.242796 -0.088827 0.164863 0.835508 -0.000000 -0.549478
-0.213822 -0.088762 0.201175 0.719428 -0.002653 -0.694562
-0.240815 -0.087986 0.290807 0.534900 -0.162920 0.829059
-0.233134 -0.091876 0.326320 -0.945398 -0.125787 -0.300667
-0.223839 -0.012795 -0.335276 -0.910627 -0.172398 -0.375550
-0.240146 -0.048457 -0.309370 0.502015 0.165333 -0.848909
-0.209560 -0.048824 -0.205440 0.707131 -0.000000 0.707082
-0.239926 -0.048577 -0.169230 0.821521 0.003188 0.570169
-0.239976 -0.047844 -0.060751 0.000000 0.000000 -1.000000
-0.241874 -0.047850 0.060748 0.000000 0.000000 1.000000
-0.241725 -0.048308 0.166492 0.835508 -0.000001 -0.549479
-0.213288 -0.047328 0.201709 0.712739 -0.001229 -0.701428
-0.238244 -0.051123 0.296610 0.527345 -0.165819 0.833313
-0.223971 -0.048452 0.319555 -0.955004 0.174310 -0.239965
-0.228279 0.016843 -0.332202 -0.918691 -0.022241 -0.394349
-0.242330 -0.011875 -0.303380 0.504114 0.167704 -0.847198
-0.213262 0.020967 -0.243727 0.672036 0.329275 0.663284
-0.238590 0.022734 -0.219089 0.718830 -0.000000 0.695186
-0.238906 -0.009552 -0.170619 0.804414 -0.002710 0.594063
-0.238128 -0.009211 -0.060751 0.000000 0.000000 -1.000000
-0.241412 0.019237 -0.042644 0.000000 1.000000 0.000000
-0.241536 0.019237 -0.002360 0.000000 1.000000 0.000000
-0.241837 -0.009222 0.060748 0.000000 0.000000 1.000000
-0.242456 -0.009262 0.165380 0.835508 -0.000000 -0.549479
-0.242335 0.019237 0.197415 0.000000 1.000000 0.000000
-0.218254 0.020364 0.239209 0.697847 0.313305 -0.644088
-0.240106 -0.007525 0.306515 0.519608 -0.168124 0.837700
-0.218170 -0.007489 0.325809 -0.963007 0.173157 -0.206480
-0.233161 0.047460 -0.328798 -0.851479 -0.101395 -0.514493
-0.240677 0.032494 -0.293420 0.532953 0.165904 -0.829721
-0.233259 0.062296 -0.282888 -0.124130 0.000793 -0.992266
-0.239511 0.030187 -0.218136 0.729231 -0.002708 0.684262
-0.241077 0.032316 0.216395 0.754824 0.002610 -0.655922
-0.243023 0.037169 0.274497 -0.896658 0.440217 0.047056
-0.242053 0.031882 0.315525 0.481379 -0.168903 0.860085
-0.242922 0.037244 0.317065 0.476848 -0.170284 0.862334
-0.233846 0.069414 -0.328376 -0.424487 0.678994 -0.598980
-0.239255 0.068965 -0.285092 0.340515 0.748250 -0.569361
-0.241368 0.069862 -0.280605 0.000000 1.000000 0.000000
-0.241994 0.069862 -0.241304 0.000000 1.000000 0.000000
-0.242409 0.069862 0.215329 0.592557 0.538236 -0.599315
-0.241830 0.069862 0.236881 0.000000 1.000000 0.000000
-0.239804 0.069379 0.277372 -0.635806 0.723233 0.269602
-0.239115 0.069635 0.321312 0.353109 0.625856 0.695427
-0.163502 -0.092138 -0.366160 -0.537193 -0.842704 -0.035683
-0.201577 -0.092138 -0.349110 -0.463101 0.857530 -0.224011
-0.201467 -0.092138 -0.318936 0.000000 -1.000000 0.000000
-0.202590 -0.092138 -0.278798 0.000000 -1.000000 0.000000
-0.201728 -0.092138 -0.239777 0.000000 -1.000000 0.000000
-0.168666 -0.092138 -0.089328 -0.964982 -0.254917 0.061858
-0.201402 -0.092138 -0.059830 0.000000 -0.477174 -0.878809
-0.201656 -0.092138 -0.039795 0.000000 -1.000000 0.000000
-0.201982 -0.092138 0.001503 0.000000 -1.000000 0.000000
-0.202297 -0.092138 0.041499 0.000000 -1.000000 0.000000
-0.173287 -0.092138 0.080255 -0.443507 -0.895724 0.031297
-0.202730 -0.092138 0.216782 0.000000 -1.000000 0.000000
-0.202169 -0.092138 0.241584 0.000000 -1.000000 0.000000
-0.201843 -0.092138 0.281198 0.000000 -1.000000 0.000000
-0.202936 -0.092138 0.321100 0.225093 -0.890341 0.395761
-0.184258 -0.092138 0.358038 -0.271614 -0.680994 0.680053
-0.168377 -0.062813 -0.366219 -0.824884 -0.015715 -0.565083
-0.199019 -0.088353 -0.348956 0.439774 0.251902 -0.862058
-0.202765 -0.090019 -0.305517 -0.932591 -0.209912 -0.293618
-0.163409 -0.087637 -0.243758 0.549514 -0.000000 0.835485
-0.201704 -0.087313 -0.213297 0.701160 0.001198 0.713003
-0.173151 -0.088282 -0.083414 -0.901390 -0.000001 -0.433008
-0.199165 -0.088353 -0.060751 0.000000 -0.954989 -0.296643
-0.202560 -0.084215 0.060748 0.000000 0.000000 1.000000
-0.174580 -0.088175 0.080434 -0.919933 -0.238016 0.311564
-0.199927 -0.089619 0.215004 0.809525 0.577694 -0.104584
-0.173238 -0.087892 0.236917 0.604910 0.000003 -0.796294
-0.193534 -0.088388 0.314472 0.567902 -0.225679 0.791553
-0.201017 -0.087560 0.321321 0.637117 -0.161883 0.753575
-0.186731 -0.088302 0.357264 -0.815640 0.002323 0.578554
-0.173332 -0.033075 -0.363906 -0.798163 -0.000411 -0.602442
-0.202701 -0.049944 -0.343272 0.584838 0.168868 -0.793378
-0.188255 -0.012357 -0.323039 0.683533 0.167050 -0.710547
-0.163799 -0.050266 -0.243502 0.549511 0.000000 0.835487
-0.199693 -0.047930 -0.215212 0.670698 -0.002396 0.741727
-0.173138 -0.051649 -0.083440 -0.901390 0.000000 -0.433009
-0.198241 -0.047844 -0.060751 0.000000 0.000000 -1.000000
-0.202036 -0.047850 0.060748 0.000000 0.000000 1.000000
-0.174492 -0.050756 0.080618 -0.922095 0.014242 0.386701
-0.199693 -0.047925 0.215208 0.670686 -0.002396 -0.741738
-0.173303 -0.049822 0.236868 0.604910 0.000000 -0.796294
-0.184968 -0.048148 0.316542 -0.010828 0.000312 0.999941
-0.202399 -0.047144 0.331387 0.608660 -0.177261 0.773377
-0.180031 -0.048039 0.356933 -0.981572 0.176662 -0.072850
-0.173336 -0.007426 -0.363913 -0.425229 0.000423 -0.905086
-0.202514 -0.007498 -0.334156 0.598903 0.169498 -0.782679
-0.198272 0.027177 -0.323079 0.639889 0.165591 -0.750414
-0.198810 0.022751 -0.255609 0.619780 0.000002 0.784776
-0.199470 -0.008043 -0.215407 0.667606 -0.001866 0.744512
-0.173145 -0.008450 -0.083427 -0.901388 -0.000001 -0.433012
-0.199212 -0.009211 -0.060751 0.000000 0.000000 -1.000000
-0.201650 0.019237 -0.042645 0.000000 1.000000 0.000000
-0.202369 0.019237 -0.002360 0.000000 1.000000 0.000000
-0.202920 -0.009222 0.060748 0.000000 0.000000 1.000000
-0.175741 -0.008523 0.078018 -0.929487 0.020548 0.368282
-0.199469 -0.008034 0.215403 0.667590 -0.001863 -0.744527
-0.200992 0.019237 0.238203 0.594484 0.537942 -0.597668
-0.163439 0.022797 0.279545 0.509630 -0.000002 -0.860394
-0.199253 -0.011583 0.336654 0.608593 -0.178824 0.773069
-0.173224 -0.007458 0.358935 -0.984670 0.166946 -0.050533
-0.173327 0.031723 -0.363899 0.016834 0.000349 -0.999858
-0.201454 0.032309 -0.324651 0.627501 0.171519 -0.759489
-0.198406 0.031040 -0.322340 0.643189 0.163122 -0.748131
-0.199671 0.032858 -0.254929 0.619780 0.000002 0.784775
-0.199669 0.032858 0.254927 0.619750 -0.000000 -0.784800
-0.202737 0.052339 0.305472 -0.905354 0.000737 0.424657
-0.198282 0.031810 0.345286 0.591583 -0.167639 0.788624
-0.166426 0.031979 0.358590 -0.986367 0.162422 -0.026431
-0.189131 0.069414 -0.356011 -0.347233 0.679002 -0.646827
-0.201301 0.068517 -0.316494 0.399513 0.751240 -0.525383
-0.201307 0.069862 -0.280602 0.000000 1.000000 0.000000
-0.202732 0.069862 0.252790 0.594110 0.537854 -0.598119
-0.202216 0.069862 0.277108 0.000000 1.000000 0.000000
-0.202945 0.069862 0.322598 -0.643340 0.763381 0.057982
-0.162149 -0.092138 -0.368646 -0.547328 0.809562 -0.212230
-0.161677 -0.092138 -0.360238 -0.568767 -0.821898 0.031442
-0.161378 -0.092138 -0.318937 0.000000 -1.000000 0.000000
-0.162756 -0.092138 -0.273531 0.000000 -1.000000 0.000000
-0.146630 -0.092138 -0.124214 -0.542291 0.628635 -0.557439
-0.158302 -0.092138 -0.108610 -0.457923 -0.741023 -0.491114
-0.162569 -0.092138 -0.080182 0.000000 -1.000000 0.000000
-0.161867 -0.092138 -0.039795 0.000000 -1.000000 0.000000
-0.162832 -0.092138 0.001503 0.000000 -1.000000 0.000000
-0.162013 -0.092138 0.041499 0.000000 -1.000000 0.000000
-0.162942 -0.092138 0.080257 0.000000 -1.000000 0.000000
-0.148326 -0.092138 0.121708 -0.572312 -0.575259 0.584411
-0.161526 -0.092138 0.246831 0.000000 -1.000000 0.000000
-0.162266 -0.092138 0.281197 0.000000 -1.000000 0.000000
-0.162504 -0.092138 0.321100 0.000000 -1.000000 0.000000
-0.138185 -0.092138 0.361194 -0.656684 -0.753018 0.041595
-0.158356 -0.087252 -0.370723 -0.390506 0.001033 -0.920600
-0.163010 -0.090029 -0.348722 -0.979771 -0.175056 0.096979
-0.160715 -0.087471 -0.245531 0.549514 0.000000 0.835485
-0.143307 -0.090431 -0.128192 -0.782123 -0.418712 -0.461480
-0.158132 -0.089040 -0.109266 -0.815821 -0.000000 -0.578305
-0.161718 -0.088752 0.104138 -0.792567 -0.022006 0.609387
-0.151214 -0.088136 0.118821 -0.798566 -0.407765 0.442742
-0.158763 -0.089144 0.246810 0.722250 0.638622 -0.265550
-0.158583 -0.091737 0.346558 0.184691 -0.950453 0.250057
-0.162012 -0.063509 0.356964 0.690878 -0.165488 0.703776
-0.159595 -0.048015 -0.370139 0.084521 0.002015 -0.996420
-0.158395 -0.018216 -0.362916 0.674322 0.166952 -0.719317
-0.161625 -0.048688 -0.244932 0.549512 0.000002 0.835486
-0.143339 -0.047694 -0.128154 -0.753638 -0.002362 -0.657285
-0.158434 -0.051232 -0.108840 -0.815818 0.000001 -0.578309
-0.161666 -0.049990 0.104226 -0.838100 -0.003627 0.545505
-0.151585 -0.050792 0.118382 -0.793048 0.006781 0.609121
-0.159717 -0.050275 0.246184 0.549480 0.000001 -0.835507
-0.158181 -0.048523 0.356830 0.022140 -0.119499 0.992587
-0.159478 -0.048502 0.358096 0.697448 -0.158526 0.698882
-0.161354 -0.007475 -0.363197 0.678303 0.163198 -0.716429
-0.158510 -0.011586 -0.361485 0.685971 0.162782 -0.709187
-0.153488 0.022432 -0.285250 0.451016 0.000001 0.892516
-0.158244 -0.008415 -0.247155 0.549512 -0.000001 0.835486
-0.143332 -0.009417 -0.128163 -0.764176 0.000000 -0.645007
-0.158596 -0.007542 -0.108611 -0.815820 0.000001 -0.578307
-0.158210 0.019237 -0.078844 0.000000 1.000000 0.000000
-0.158832 0.019237 -0.038872 -0.544163 0.838325 -0.033130
-0.161812 0.021705 -0.002530 -1.000000 0.000000 0.000000
-0.162503 0.019237 0.038874 0.000000 1.000000 0.000000
-0.161197 -0.008633 0.104938 -0.841124 0.003759 0.540830
-0.151411 -0.009890 0.118588 -0.791099 0.006775 0.611651
-0.160372 -0.009939 0.245753 0.549479 0.000001 -0.835508
-0.159675 0.020227 0.281775 0.594870 0.392290 -0.701597
-0.148956 -0.009831 0.356720 0.722448 -0.168124 0.670674
-0.158583 -0.010181 0.366339 0.636786 -0.211041 0.741596
-0.138235 0.046983 -0.375197 -0.983991 -0.169271 -0.055764
-0.161721 0.032177 -0.354130 0.694139 0.171960 -0.699000
-0.154667 0.032341 -0.284654 0.464114 -0.001380 0.885775
-0.158679 0.031885 -0.282368 0.509596 0.000000 0.860414
-0.138425 0.035450 -0.083851 -0.849320 0.001175 -0.527877
-0.153556 0.032394 -0.051485 -0.952782 0.000615 -0.303653
-0.158151 0.031442 -0.034511 -0.982462 -0.000001 -0.186461
-0.161812 0.031907 -0.002519 -1.000000 0.000000 0.000000
-0.156997 0.032691 0.039573 -0.960694 -0.000003 0.277610
-0.141297 0.032304 0.079145 -0.879062 0.001051 0.476707
-0.160804 0.030255 0.281106 0.509634 0.000001 -0.860391
-0.162772 0.032843 0.328501 -0.877510 0.000791 0.479557
-0.162137 0.031771 0.369067 -0.416319 0.000429 0.909219
-0.138927 0.068559 -0.378436 -0.262388 0.679932 -0.684723
-0.162884 0.069862 -0.345811 0.419488 0.882351 -0.213276
-0.161500 0.069862 -0.321007 0.000000 1.000000 0.000000
-0.161283 0.069614 -0.280825 0.439501 0.608931 0.660334
-0.138139 0.072459 -0.084304 -0.851324 -0.002413 -0.524635
-0.153313 0.072306 -0.052298 -0.946000 -0.001084 -0.324164
-0.158261 0.071542 -0.033933 -0.982463 -0.000001 -0.186460
-0.161812 0.071864 -0.002476 -1.000000 0.000000 0.000000
-0.157483 0.069766 0.037892 -0.795085 -0.201643 0.571997
-0.140661 0.071768 0.080302 -0.871831 0.004670 0.489785
-0.161284 0.069614 0.280822 0.439498 0.608966 -0.660304
-0.162238 0.069862 0.317634 0.000000 1.000000 0.000000
-0.160123 0.068919 0.359034 -0.661172 0.750202 0.006996
-0.113639 -0.092138 -0.379923 -0.680191 0.702574 -0.209118
-0.122330 -0.092138 -0.343578 -0.000044 -0.130627 -0.991432
-0.121282 -0.092138 -0.318938 0.000000 -1.000000 0.000000
-0.121551 -0.092138 -0.278797 0.000000 -1.000000 0.000000
-0.099109 -0.092138 -0.163661 0.000011 -0.865131 -0.501545
-0.119776 -0.092138 -0.150388 -0.620111 0.616337 -0.485377
-0.122131 -0.092138 -0.119508 0.000000 -1.000000 0.000000
-0.122157 -0.092138 -0.080182 0.000000 -1.000000 0.000000
-0.122080 -0.092138 -0.039795 0.000000 -1.000000 0.000000
-0.121901 -0.092138 0.001503 0.000000 -1.000000 0.000000
-0.121727 -0.092138 0.041504 0.000000 -1.000000 0.000000
-0.121560 -0.092138 0.080255 0.000000 -1.000000 0.000000
-0.122897 -0.092138 0.121708 0.000000 -1.000000 0.000000
-0.109361 -0.092138 0.158028 -0.494538 -0.558786 0.665725
-0.121655 -0.092138 0.270996 0.000000 -1.000000 0.000000
-0.122689 -0.092138 0.281198 0.000000 -1.000000 0.000000
-0.122071 -0.092138 0.321102 0.000000 -1.000000 0.000000
-0.122915 -0.092138 0.361194 0.000000 -1.000000 0.000000
-0.118143 -0.072351 -0.363363 -0.985683 -0.168126 -0.012732
-0.119151 -0.087971 -0.346737 -0.328126 0.000388 -0.944634
-0.118551 -0.089092 -0.268587 -0.717206 0.666606 -0.203104
-0.100079 -0.088494 -0.164115 0.212645 -0.530193 -0.820779
-0.121475 -0.090309 -0.148980 -0.714742 -0.490134 -0.498912
-0.108125 -0.087649 -0.028231 0.772934 0.006458 0.634454
-0.108125 -0.087399 -0.001663 0.993531 -0.096581 0.059732
-0.083124 -0.088009 0.037054 0.920939 0.202169 -0.333166
-0.121476 -0.090329 0.148974 -0.714768 -0.490083 0.498925
-0.109721 -0.088930 0.157809 -0.672157 -0.534600 0.512258
-0.122876 -0.089947 0.266516 -0.716716 0.667326 0.202470
-0.094118 -0.087278 0.277990 0.305201 -0.000002 -0.952288
-0.105085 -0.088515 0.356783 0.834186 -0.162489 0.527002
-0.119567 -0.088617 0.376708 0.751155 -0.170446 0.637741
-0.118610 -0.048428 -0.385230 -0.300686 -0.000434 -0.953723
-0.122329 -0.047853 -0.362822 -0.985684 -0.168124 -0.012733
-0.118153 -0.048171 -0.268778 0.410058 0.001609 0.912058
-0.099417 -0.047833 -0.164505 -0.507436 -0.000001 -0.861690
-0.122047 -0.047725 -0.148497 -0.645009 -0.000000 -0.764175
-0.108125 -0.050997 -0.028165 0.820715 -0.033398 0.570361
-0.108125 -0.048074 0.000985 1.000000 0.000000 0.000000
-0.083194 -0.048639 0.036878 0.925368 -0.000305 -0.379069
-0.122046 -0.047741 0.148493 -0.645006 -0.000001 0.764177
-0.110910 -0.051134 0.156967 -0.578279 0.000000 0.815839
-0.122385 -0.049020 0.266751 0.431349 -0.000000 -0.902185
-0.095063 -0.049074 0.277687 0.305202 -0.000002 -0.952288
-0.093375 -0.048879 0.354546 0.353676 -0.565397 0.745144
-0.122758 -0.048376 0.383952 -0.291833 -0.000440 0.956469
-0.118622 -0.007503 -0.385241 -0.300687 0.000437 -0.953723
-0.103561 0.022324 -0.362049 0.819042 0.165167 -0.549445
-0.119089 0.022760 -0.301228 0.390382 0.000002 0.920653
-0.118758 -0.007545 -0.268488 0.419596 -0.000922 0.907711
-0.098787 -0.009150 -0.164876 -0.507437 0.000000 -0.861689
-0.120804 -0.008229 -0.149546 -0.645009 0.000000 -0.764175
-0.118334 0.019237 -0.119624 0.000000 1.000000 0.000000
-0.108125 -0.008806 -0.023169 1.000000 0.000000 0.000000
-0.108125 -0.008806 0.001006 1.000000 0.000000 0.000000
-0.083139 0.000090 0.037017 0.920075 0.002895 -0.391732
-0.122495 0.019988 0.105901 -0.669443 0.332555 0.664269
-0.122590 -0.007275 0.148035 -0.645008 -0.000000 0.764176
-0.109649 -0.007398 0.157861 -0.578280 -0.000000 0.815839
-0.122661 -0.009750 0.266619 0.431344 -0.000001 -0.902188
-0.122631 0.019237 0.277656 0.000000 1.000000 0.000000
-0.122322 0.002108 0.346323 -0.910134 0.246603 0.332931
-0.122768 -0.007496 0.383965 -0.616218 0.000448 0.787575
-0.122737 0.032024 -0.383926 0.326308 0.237219 -0.915014
-0.113455 0.067462 -0.362897 0.800001 0.168892 -0.575738
-0.120481 0.032608 -0.300638 0.390382 -0.000003 0.920653
-0.105023 0.029711 -0.123151 -0.664475 0.000000 -0.747311
-0.119890 0.028916 -0.108701 -0.731529 0.000001 -0.681811
-0.108125 0.032375 -0.024822 1.000000 0.000000 0.000000
-0.108125 0.032375 0.000991 1.000000 0.000000 0.000000
-0.083142 0.037847 0.037010 0.920339 0.002871 -0.391110
-0.121761 0.028933 0.106689 -0.740446 0.001587 0.672114
-0.110361 0.032041 0.118400 -0.664474 -0.000000 0.747311
-0.118515 0.031683 0.301467 0.390385 -0.000000 -0.920652
-0.121913 0.031651 0.345760 -0.321909 -0.001105 0.946770
-0.118207 0.030021 0.357253 -0.986343 0.164111 -0.013994
-0.122334 0.068804 -0.374065 0.328721 0.898475 -0.291006
-0.122608 0.069862 -0.362586 0.000000 1.000000 0.000000
-0.122900 0.069862 -0.321010 0.000000 1.000000 0.000000
-0.103830 0.072027 -0.124211 -0.664046 -0.000055 -0.747692
-0.120033 0.072146 -0.108547 -0.731528 0.000000 -0.681811
-0.122263 0.092137 -0.082463 0.000000 1.000000 0.000000
-0.122185 0.092137 -0.042008 0.000000 1.000000 0.000000
-0.122107 0.092137 -0.002779 0.000000 1.000000 0.000000
-0.121929 0.092137 0.037353 0.000000 1.000000 0.000000
-0.121853 0.072195 0.106590 -0.741247 0.001784 0.671230
-0.111062 0.071025 0.117777 -0.664474 0.000000 0.747311
-0.121985 0.069862 0.300921 0.000046 0.833945 -0.551847
-0.122669 0.069862 0.317632 0.000000 1.000000 0.000000
-0.111560 0.069323 0.357650 -0.662415 0.748759 0.023791
-0.063392 -0.092138 -0.384751 -0.496672 -0.842049 -0.210406
-0.082364 -0.092138 -0.360240 0.000000 -1.000000 0.000000
-0.081188 -0.092138 -0.318938 0.000000 -1.000000 0.000000
-0.079887 -0.092138 -0.282888 0.258785 -0.958298 0.121221
-0.059446 -0.092138 -0.239773 -0.680561 -0.732546 0.014565
-0.078987 -0.092138 -0.174630 -0.879370 -0.422439 -0.219666
-0.082349 -0.092138 -0.160029 0.000000 -1.000000 0.000000
-0.082973 -0.092138 -0.119509 0.000000 -1.000000 0.000000
-0.081747 -0.092138 -0.080185 0.000000 -1.000000 0.000000
-0.082293 -0.092138 -0.039793 0.591286 -0.673919 0.442960
-0.081446 -0.092138 0.041504 0.585333 -0.634183 -0.505170
-0.081901 -0.092138 0.080256 0.000000 -1.000000 0.000000
-0.082215 -0.092138 0.121709 0.000000 -1.000000 0.000000
-0.082518 -0.092138 0.161784 0.000000 -1.000000 0.000000
-0.059852 -0.092138 0.200550 -0.676356 -0.736370 0.017362
-0.060410 -0.092138 0.241582 -0.890400 -0.454573 0.023483
-0.082926 -0.092138 0.286266 0.000000 -1.000000 0.000000
-0.081641 -0.092138 0.321103 0.000000 -1.000000 0.000000
-0.081689 -0.092138 0.361192 0.000000 -1.000000 0.000000
-0.082830 -0.087475 -0.363469 0.305634 -0.597128 -0.741638
-0.080702 -0.090701 -0.360668 0.248717 -0.809000 -0.532596
-0.076439 -0.087148 -0.283394 0.239970 -0.000000 0.970780
-0.082267 -0.088886 -0.281793 0.305335 -0.000001 0.952245
-0.060741 -0.088070 -0.242989 -1.000000 0.000000 0.000000
-0.081058 -0.088377 -0.174289 0.260784 -0.578724 -0.772704
-0.079043 -0.087928 -0.044983 0.875439 -0.000001 0.483329
-0.082496 -0.087497 -0.038637 0.902399 -0.008565 0.430817
-0.082495 -0.087507 0.038634 0.902249 -0.008593 -0.431130
-0.048526 -0.089837 0.076910 -0.165868 0.781496 -0.601458
-0.082813 -0.085731 0.173442 -0.433009 0.000000 0.901390
-0.060741 -0.087164 0.198083 -1.000000 0.000000 0.000000
-0.060741 -0.088070 0.237730 -1.000000 0.000000 0.000000
-0.082266 -0.088897 0.281788 0.305196 0.000002 -0.952290
-0.082580 -0.087558 0.394576 -0.207067 0.002519 0.978324
-0.070299 -0.072704 0.396909 0.347724 -0.559393 0.752441
-0.078169 -0.023361 -0.364808 -0.983979 -0.168204 -0.059103
-0.078333 -0.047676 -0.358197 -0.199187 0.000394 -0.979962
-0.075997 -0.049485 -0.283503 0.239972 -0.000001 0.970780
-0.082281 -0.047395 -0.281788 0.305336 0.000001 0.952245
-0.060741 -0.048377 -0.241463 -1.000000 0.000000 0.000000
-0.080876 -0.047986 -0.174376 -0.433058 0.000000 -0.901366
-0.079881 -0.049695 -0.043465 0.875439 -0.000000 0.483329
-0.081685 -0.048189 -0.040196 0.891884 -0.003254 0.452253
-0.081685 -0.048186 0.040192 0.891888 -0.003253 -0.452244
-0.048134 -0.049757 0.077158 0.535011 0.000000 -0.844845
-0.082830 -0.050064 0.173434 -0.433010 0.000000 0.901389
-0.060741 -0.048377 0.197059 -1.000000 0.000000 0.000000
-0.060741 -0.048377 0.237764 -1.000000 0.000000 0.000000
-0.082282 -0.047387 0.281783 0.305202 -0.000000 -0.952287
-0.082774 -0.047186 0.368359 -0.982980 0.166388 0.077883
-0.070306 -0.047777 0.396919 -0.161730 -0.000440 0.986835
-0.078400 -0.007658 -0.385111 -0.968785 -0.167749 -0.182527
-0.081022 -0.007796 -0.361610 -0.983979 -0.168206 -0.059103
-0.082197 0.021578 -0.313232 0.297071 0.123013 0.946899
-0.082647 -0.008016 -0.281671 0.305339 0.000001 0.952244
-0.060741 -0.008517 -0.241455 -1.000000 0.000000 0.000000
-0.078802 -0.007591 -0.175373 -0.433059 -0.000000 -0.901366
-0.079702 0.019237 -0.159123 0.000000 1.000000 0.000000
-0.078190 -0.011024 -0.046528 0.871125 0.000801 0.491060
-0.081723 -0.008236 -0.040128 0.892225 -0.003400 0.451579
-0.081722 -0.008231 0.040124 0.892228 -0.003398 -0.451573
-0.048456 -0.011086 0.076955 0.535010 0.000000 -0.844846
-0.082094 0.019237 0.139528 -0.442030 0.594453 0.671740
-0.082609 -0.011505 0.173540 -0.433008 -0.000001 0.901390
-0.060741 -0.008517 0.197721 -1.000000 0.000000 0.000000
-0.060741 -0.008517 0.237810 -1.000000 0.000000 0.000000
-0.082648 -0.008013 0.281666 0.305201 -0.000000 -0.952288
-0.063620 0.019884 0.317506 0.285869 0.569386 -0.770765
-0.082899 -0.007815 0.357149 -0.228180 -0.000386 0.973619
-0.070316 -0.007617 0.396933 -0.420517 0.000489 0.907285
-0.079548 0.032438 -0.395193 -0.205063 -0.001062 -0.978748
-0.053797 0.042492 -0.363084 0.594336 0.157907 -0.788562
-0.081794 0.030624 -0.313342 0.264222 0.000003 0.964462
-0.081442 0.031384 -0.139843 -0.513546 -0.000001 -0.858062
-0.078170 0.030349 -0.046563 0.871327 0.000782 0.490702
-0.081759 0.029913 -0.040063 0.892563 -0.003549 0.450908
-0.081758 0.029921 0.040060 0.892565 -0.003546 -0.450906
-0.048592 0.029676 0.076869 0.535011 0.000000 -0.844845
-0.081441 0.031376 0.139840 -0.513546 0.000001 0.858062
-0.079765 0.030016 0.313894 0.264222 0.000003 -0.964462
-0.063200 0.032004 0.317591 0.199187 -0.000001 -0.979962
-0.078340 0.032023 0.358208 0.326566 0.000746 0.945174
-0.063741 0.032633 0.397638 -0.749954 0.208988 0.627609
-0.079558 0.069703 -0.395206 -0.143990 0.764712 -0.628079
-0.081398 0.069862 -0.362586 0.000000 1.000000 0.000000
-0.082275 0.069862 -0.321012 0.000000 1.000000 0.000000
-0.080949 0.072776 -0.140138 -0.513548 0.000001 -0.858061
-0.082900 0.092137 -0.117163 0.000000 1.000000 0.000000
-0.078152 0.069755 -0.046596 0.871529 0.000761 0.490344
-0.081519 0.072105 -0.040497 0.888517 -0.002749 0.458835
-0.081518 0.072115 0.040494 0.888519 -0.002744 -0.458832
-0.081967 0.092137 0.078246 0.000000 1.000000 0.000000
-0.082804 0.070688 0.139024 -0.513546 0.000000 0.858062
-0.081636 0.069862 0.314308 -0.000042 0.831070 -0.556167
-0.082915 0.069862 0.322596 0.000000 1.000000 0.000000
-0.081596 0.069862 0.358349 0.000000 1.000000 0.000000
-0.057077 0.068934 0.398284 -0.386699 0.874228 0.293581
-0.042099 -0.092138 -0.388450 0.562148 -0.826996 -0.008173
-0.041689 -0.092138 -0.360237 0.000000 -1.000000 0.000000
-0.043018 -0.092138 -0.313520 0.000000 -1.000000 0.000000
-0.042493 -0.092138 -0.278799 0.000000 -1.000000 0.000000
-0.041903 -0.092138 -0.239773 0.000000 -1.000000 0.000000
-0.041292 -0.092138 -0.199323 0.000000 -1.000000 0.000000
-0.042593 -0.092138 -0.160034 0.000000 -1.000000 0.000000
-0.041951 -0.092138 -0.119506 0.000000 -1.000000 0.000000
-0.041365 -0.092138 -0.082461 0.000165 -0.941463 0.337117
-0.042917 -0.092138 0.080621 0.280052 -0.787119 -0.549558
-0.041531 -0.092138 0.121707 0.000000 -1.000000 0.000000
-0.042508 -0.092138 0.161783 0.000000 -1.000000 0.000000
-0.041813 -0.092138 0.200551 0.000000 -1.000000 0.000000
-0.042688 -0.092138 0.241583 0.000000 -1.000000 0.000000
-0.041952 -0.092138 0.281197 0.000000 -1.000000 0.000000
-0.042764 -0.092138 0.321100 0.000000 -1.000000 0.000000
-0.041992 -0.092138 0.361192 0.000000 -1.000000 0.000000
-0.033722 -0.092138 0.401372 -0.683540 -0.233790 0.691458
-0.041328 -0.087640 -0.388397 0.881082 0.168136 -0.442068
-0.033742 -0.088298 -0.084627 0.375910 0.001107 0.926655
-0.039827 -0.087624 -0.081769 0.425093 0.000000 0.905150
-0.039827 -0.087624 0.081765 0.425021 0.000000 -0.905184
-0.042922 -0.087196 0.364163 -0.392988 0.000429 0.919543
-0.034312 -0.088098 0.397369 -0.936233 0.173249 0.305701
-0.042269 -0.048394 -0.374849 0.177081 0.151401 -0.972481
-0.035024 -0.050289 -0.084025 0.413497 0.000279 0.910506
-0.038942 -0.047502 -0.082184 0.425093 0.000001 0.905150
-0.040979 -0.049680 0.081225 0.425021 -0.000000 -0.905183
-0.042876 -0.045650 0.364152 -0.126486 0.000195 0.991968
-0.026831 -0.047400 0.397316 -0.928805 0.166300 0.331159
-0.039655 -0.009430 -0.364500 -0.104705 -0.000418 -0.994503
-0.019825 0.022743 -0.323218 0.066781 0.000003 0.997768
-0.042758 0.022156 -0.320985 0.136358 0.021214 0.990433
-0.042273 0.019237 -0.282637 0.000000 1.000000 0.000000
-0.041697 0.019237 -0.242770 0.000000 1.000000 0.000000
-0.038780 0.019237 -0.199302 0.000000 1.000000 0.000000
-0.039412 0.019237 -0.159124 0.000000 1.000000 0.000000
-0.034194 -0.008345 -0.084414 0.390123 0.000837 0.920763
-0.040006 -0.007805 -0.081685 0.425092 0.000000 0.905150
-0.040008 -0.007805 0.081680 0.425023 -0.000000 -0.905183
-0.042925 0.020842 0.156030 -0.378563 0.273613 0.884209
-0.039357 0.022738 0.156971 -0.270882 0.032266 0.962072
-0.042259 0.019237 0.197418 0.000000 1.000000 0.000000
-0.041556 0.019237 0.238203 0.000000 1.000000 0.000000
-0.042544 0.019237 0.277655 0.000000 1.000000 0.000000
-0.038607 0.021538 0.321539 0.152699 0.142158 -0.977995
-0.038586 -0.011272 0.364621 0.655121 -0.019779 0.755265
-0.019592 -0.007808 0.397599 -0.926255 0.166940 0.337910
-0.038136 0.032574 -0.374044 -0.970098 -0.167177 -0.175959
-0.019725 0.031867 -0.323225 0.066784 0.000000 0.997768
-0.042545 0.031269 -0.321013 0.133279 0.000001 0.991079
-0.042593 0.032707 -0.156121 -0.255020 0.000000 -0.966936
-0.033403 0.031674 -0.084775 0.364522 -0.001241 0.931194
-0.039081 0.032135 -0.082119 0.425093 0.000001 0.905150
-0.041025 0.030124 0.081203 0.425022 -0.000000 -0.905183
-0.042593 0.032695 0.156117 -0.255018 0.000001 0.966936
-0.039154 0.030638 0.157024 -0.255021 0.000001 0.966935
-0.038415 0.030659 0.321565 0.133281 -0.000003 -0.991078
-0.038387 0.031908 0.376826 0.900889 -0.168083 0.400185
-0.042801 0.062219 0.397174 0.861756 -0.168471 0.478534
-0.038171 0.069222 -0.398486 -0.932448 0.259947 -0.250935
-0.042242 0.069862 -0.362588 0.000000 1.000000 0.000000
-0.041647 0.069731 -0.321134 0.140709 0.682677 0.717045
-0.039798 0.071796 -0.156859 -0.255016 -0.000000 -0.966937
-0.041990 0.092137 -0.121860 0.000000 1.000000 0.000000
-0.041838 0.072616 -0.080824 0.425093 0.000000 0.905150
-0.040021 0.071445 0.081674 0.425022 -0.000000 -0.905183
-0.041525 0.070914 0.156399 -0.255018 0.000000 0.966936
-0.038170 0.068944 0.157284 -0.255019 0.000000 0.966936
-0.039625 0.069449 0.321402 0.191206 0.630205 -0.752517
-0.042741 0.069862 0.358349 0.000000 1.000000 0.000000
-0.042626 0.069413 0.399392 0.504575 0.804952 0.312180
0.003090 -0.092138 -0.399882 0.000000 -1.000000 0.000000
-0.003035 -0.092138 -0.343578 0.000000 -1.000000 0.000000
-0.003008 -0.092138 -0.318940 0.000000 -1.000000 0.000000
-0.002965 -0.092138 -0.278801 0.000000 -1.000000 0.000000
-0.002924 -0.092138 -0.239776 0.000000 -1.000000 0.000000
-0.002880 -0.092138 -0.199324 0.000000 -1.000000 0.000000
-0.002837 -0.092138 -0.160036 0.000000 -1.000000 0.000000
-0.002794 -0.092138 -0.119510 0.000000 -1.000000 0.000000
0.000925 -0.092138 0.091626 0.000041 -0.785897 -0.618358
-0.002540 -0.092138 0.121707 0.000000 -1.000000 0.000000
-0.002498 -0.092138 0.161784 0.000000 -1.000000 0.000000
-0.002458 -0.092138 0.200551 0.000000 -1.000000 0.000000
-0.002416 -0.092138 0.241583 0.000000 -1.000000 0.000000
-0.002375 -0.092138 0.281197 0.000000 -1.000000 0.000000
-0.002334 -0.092138 0.321100 0.000000 -1.000000 0.000000
-0.002292 -0.092138 0.361190 0.000000 -1.000000 0.000000
0.020230 -0.092138 0.401372 -0.698606 -0.207800 0.684667
-0.001899 -0.092134 -0.403136 -0.609797 -0.620869 -0.492614
-0.000010 -0.087768 -0.403131 0.000639 0.001055 -0.999999
-0.003033 -0.064428 -0.090936 0.062679 -0.000001 0.998034
0.001028 -0.090722 0.091059 -0.056378 0.922461 -0.381951
-0.002290 -0.089672 0.366637 0.000000 -0.143868 0.989597
0.018692 -0.087517 0.397611 -0.887106 0.173230 0.427826
-0.001865 -0.047770 -0.403069 0.413520 0.559460 -0.718336
-0.003008 -0.049846 -0.090937 0.062678 -0.000000 0.998034
0.001005 -0.050026 0.091061 -0.031102 0.000019 -0.999516
0.000785 -0.051831 0.366760 0.585604 -0.198501 0.785917
-0.002846 -0.012197 0.397994 0.904999 -0.168697 0.390535
-0.001062 -0.007978 -0.383180 0.932099 0.168139 -0.320812
-0.001042 0.022075 -0.323821 0.000000 0.036153 0.999346
-0.001043 0.019237 -0.320848 0.000000 1.000000 0.000000
0.003093 0.019237 -0.282636 0.000000 1.000000 0.000000
-0.003032 0.019237 -0.227121 0.000000 1.000000 0.000000
0.000864 0.019237 -0.199302 0.000000 1.000000 0.000000
0.000877 0.020815 -0.161847 0.037226 0.312134 -0.949309
-0.002936 -0.007500 -0.090942 0.062678 -0.000000 0.998034
0.000981 -0.007672 0.091062 -0.031103 0.000017 -0.999516
0.000877 0.020815 0.161844 0.037165 0.312195 0.949291
-0.002585 0.019237 0.197417 0.000000 1.000000 0.000000
-0.002543 0.019237 0.238203 0.000000 1.000000 0.000000
-0.002503 0.019237 0.277655 0.000000 1.000000 0.000000
0.001046 0.019237 0.320844 0.000000 1.000000 0.000000
0.001755 -0.011487 0.386761 0.926936 -0.168123 0.335447
-0.002906 -0.007880 0.399997 0.905000 -0.168696 0.390535
0.000797 0.031466 -0.366622 -0.004243 0.000265 -0.999991
0.003117 0.031213 -0.323821 0.000000 0.000000 1.000000
0.021795 0.032020 -0.323087 -0.066773 0.000000 0.997768
0.000870 0.032555 -0.161847 0.023504 -0.000024 -0.999724
-0.002867 0.032862 -0.090946 0.062679 0.000000 0.998034
0.000958 0.032696 0.091063 -0.031103 0.000018 -0.999516
0.000870 0.032553 0.161844 0.023441 0.000001 0.999725
0.001040 0.031213 0.323817 0.000000 0.000000 -1.000000
0.006460 0.032201 0.395634 0.916925 -0.168667 0.361662
-0.001915 0.032081 0.403123 0.002520 -0.000209 0.999997
0.006683 0.069308 -0.379132 -0.495105 0.842191 -0.213508
0.003093 0.069862 -0.362581 0.000000 1.000000 0.000000
0.021102 0.068769 -0.323134 0.012675 0.556770 0.830570
0.000847 0.070429 -0.161849 0.023505 -0.000024 -0.999724
-0.002801 0.071375 -0.090950 0.062679 0.000001 0.998034
0.000937 0.071216 0.091065 -0.031103 0.000018 -0.999516
-0.002545 0.092137 0.117820 0.000000 1.000000 0.000000
0.000847 0.070419 0.161844 0.023440 0.000000 0.999725
-0.002368 0.069862 0.324249 0.000000 0.828900 -0.559396
-0.002331 0.069862 0.358348 0.000000 1.000000 0.000000
-0.002289 0.069862 0.397623 0.000000 1.000000 0.000000
0.041449 -0.092138 -0.389169 -0.507533 -0.845122 -0.167868
0.037623 -0.092138 -0.360240 0.000000 -1.000000 0.000000
0.037085 -0.092138 -0.318938 0.000000 -1.000000 0.000000
0.038538 -0.092138 -0.278800 0.000000 -1.000000 0.000000
0.038004 -0.092138 -0.239775 0.000000 -1.000000 0.000000
0.037451 -0.092138 -0.199323 0.000000 -1.000000 0.000000
0.038737 -0.092138 -0.155203 0.000000 -1.000000 0.000000
0.038225 -0.092138 -0.119508 0.000000 -1.000000 0.000000
0.039530 -0.092138 -0.082462 -0.139828 -0.778786 0.611506
0.050948 -0.092138 0.076229 -0.356843 -0.876192 -0.323962
0.041618 -0.092138 0.081092 -0.348958 -0.683553 -0.641080
0.038143 -0.092138 0.121709 0.000000 -1.000000 0.000000
0.037509 -0.092138 0.161783 0.000000 -1.000000 0.000000
0.038446 -0.092138 0.205985 0.000000 -1.000000 0.000000
0.037857 -0.092138 0.241582 0.000000 -1.000000 0.000000
0.037203 -0.092138 0.281196 0.000000 -1.000000 0.000000
0.038098 -0.092138 0.321100 0.000000 -1.000000 0.000000
0.037407 -0.092138 0.361191 0.000000 -1.000000 0.000000
0.041542 -0.087383 -0.392309 -0.870642 -0.169439 -0.461815
0.061836 -0.062200 -0.362514 0.928826 0.196762 -0.313954
0.060760 -0.088078 -0.283342 1.000000 0.000000 0.000000
0.060760 -0.088078 -0.279833 1.000000 0.000000 0.000000
0.060760 -0.088078 -0.239480 1.000000 0.000000 0.000000
0.060760 -0.087155 -0.199955 1.000000 0.000000 0.000000
0.037827 -0.089107 -0.082717 -0.635335 0.751659 0.177083
0.050004 -0.089947 0.075986 -0.725518 0.685197 -0.064257
0.039826 -0.087639 0.081775 -0.425089 -0.000000 -0.905152
0.060760 -0.087155 0.186810 1.000000 0.000000 0.000000
0.060760 -0.087155 0.201831 1.000000 0.000000 0.000000
0.060760 -0.088078 0.241234 1.000000 0.000000 0.000000
0.060760 -0.088078 0.281584 1.000000 0.000000 0.000000
0.041769 -0.091035 0.371632 0.256184 -0.961260 0.101729
0.037244 -0.078041 0.398599 0.936618 -0.170565 0.306030
0.041071 -0.047399 -0.400982 0.095455 -0.000444 -0.995434
0.056774 -0.032240 -0.363043 0.880409 0.209594 -0.425383
0.060760 -0.048240 -0.285775 0.900191 -0.079545 0.428170
0.060760 -0.049069 -0.278858 -0.064113 -0.611938 0.788303
0.060760 -0.048368 -0.239610 1.000000 0.000000 0.000000
0.060760 -0.048368 -0.198904 1.000000 0.000000 0.000000
0.036987 -0.048907 -0.083111 -0.425160 -0.000000 0.905118
0.050825 -0.048178 0.075467 -0.534930 0.000000 -0.844896
0.040977 -0.049694 0.081234 -0.425088 -0.000000 -0.905152
0.060760 -0.048368 0.185949 1.000000 0.000000 0.000000
0.060760 -0.048368 0.200752 1.000000 0.000000 0.000000
0.060760 -0.048368 0.241460 1.000000 0.000000 0.000000
0.060760 -0.049069 0.278854 -0.064121 -0.611950 -0.788293
0.046564 -0.051789 0.381656 0.963384 -0.168120 0.208871
0.038868 -0.047341 0.401204 0.104647 -0.000429 0.994509
0.041056 -0.008020 -0.400998 0.095452 0.000445 -0.995434
0.051267 0.002154 -0.363058 0.645445 0.001036 -0.763806
0.038603 0.021534 -0.321546 -0.152808 0.143031 0.977851
0.038147 0.019237 -0.282637 0.000000 1.000000 0.000000
0.037629 0.019237 -0.242768 0.000000 1.000000 0.000000
0.040501 0.019237 -0.199301 0.000000 1.000000 0.000000
0.041163 0.019237 -0.159124 0.000000 1.000000 0.000000
0.038098 -0.009135 -0.082590 -0.425160 -0.000000 0.905118
0.051608 -0.008322 0.074971 -0.534931 -0.000000 -0.844896
0.040009 -0.007816 0.081689 -0.425089 0.000000 -0.905152
0.041125 0.022161 0.156684 0.289733 0.083900 0.953423
0.037674 0.019728 0.157423 0.328843 0.550008 0.767693
0.037085 0.019237 0.197415 0.000000 1.000000 0.000000
0.038162 0.019237 0.238202 0.000000 1.000000 0.000000
0.037540 0.019237 0.277655 0.000000 1.000000 0.000000
0.040679 0.021843 0.321263 -0.144105 0.076707 -0.986585
0.037446 0.012417 0.396536 -0.863080 0.172172 0.474815
0.038853 -0.008013 0.401220 0.104651 0.000454 0.994509
0.037801 0.031613 -0.399233 0.940379 0.172174 -0.293332
0.051250 0.028014 -0.363037 -0.396791 -0.572529 -0.717473
0.038412 0.030653 -0.321572 -0.133285 0.000001 0.991078
