ply
format ascii 1.0
comment SurfExtract output
element vertex 327
property float x
property float y
property float z
property float nx
property float ny
property float nz
end_header
-0.090991 -0.317312 -0.005386 -0.999001 0.000000 -0.044680
-0.090991 -0.276835 -0.005386 -0.999001 0.000000 -0.044680
-0.090991 -0.237804 -0.005386 -0.999001 -0.000000 -0.044680
-0.090991 -0.197327 -0.005386 -0.999001 -0.000000 -0.044680
-0.090991 -0.156850 -0.005386 -0.999001 0.000000 -0.044680
-0.090991 -0.117819 -0.005386 -0.999001 0.000000 -0.044680
-0.090991 -0.077342 -0.005386 -0.999001 0.000000 -0.044680
-0.090991 -0.036865 -0.005386 -0.999001 0.000000 -0.044680
-0.071412 -0.321468 -0.056380 -0.644331 -0.402891 -0.650013
-0.086163 -0.321468 -0.026331 -0.790971 -0.610452 0.041394
-0.090813 -0.321468 -0.006111 -0.630510 -0.466051 -0.620688
-0.084176 -0.321468 0.032876 -0.461937 -0.886573 0.024552
-0.056025 -0.321468 0.071435 -0.388800 -0.678716 0.623041
-0.071573 -0.317405 -0.056361 -0.817906 0.000000 -0.575351
-0.086414 -0.316618 -0.028495 -0.953403 0.000000 -0.301699
-0.090652 -0.316859 -0.009173 -0.992648 0.000000 -0.121038
-0.086101 -0.314247 0.029485 -0.945713 0.008487 0.324892
-0.058539 -0.317407 0.069724 -0.606209 0.000000 0.795305
-0.071573 -0.277122 -0.056361 -0.817906 0.000000 -0.575351
-0.086414 -0.277129 -0.028495 -0.953403 0.000000 -0.301699
-0.090652 -0.277704 -0.009173 -0.992648 0.000000 -0.121038
-0.086064 -0.276939 0.029603 -0.953403 0.000000 0.301699
-0.058539 -0.277300 0.069724 -0.606209 0.000000 0.795305
-0.071573 -0.236838 -0.056361 -0.817906 0.000000 -0.575351
-0.087005 -0.236516 -0.026629 -0.953403 0.000000 -0.301699
-0.090652 -0.237100 -0.009173 -0.992648 0.000000 -0.121038
-0.086225 -0.237862 0.029092 -0.953404 -0.000000 0.301698
-0.058539 -0.237192 0.069724 -0.606209 -0.000001 0.795305
-0.071573 -0.196554 -0.056361 -0.817906 0.000000 -0.575351
-0.086414 -0.196740 -0.028495 -0.953403 0.000000 -0.301699
-0.090652 -0.196496 -0.009173 -0.992648 0.000000 -0.121038
-0.086007 -0.196925 0.029782 -0.953404 0.000001 0.301698
-0.058539 -0.197084 0.069724 -0.606210 0.000001 0.795305
-0.071573 -0.157660 -0.056361 -0.817906 0.000000 -0.575351
-0.086414 -0.157251 -0.028495 -0.953404 0.000000 -0.301697
-0.090652 -0.157342 -0.009173 -0.992648 0.000000 -0.121038
-0.086073 -0.158078 0.029575 -0.953403 0.000000 0.301698
-0.058539 -0.156976 0.069724 -0.606209 0.000001 0.795306
-0.071573 -0.117376 -0.056361 -0.817906 0.000000 -0.575351
-0.087005 -0.116493 -0.026629 -0.953403 0.000000 -0.301699
-0.090652 -0.116738 -0.009173 -0.992648 0.000000 -0.121038
-0.086251 -0.117213 0.029011 -0.953404 0.000001 0.301698
-0.058539 -0.116868 0.069724 -0.606209 -0.000001 0.795306
-0.071573 -0.077092 -0.056361 -0.817906 0.000000 -0.575351
-0.086414 -0.076862 -0.028495 -0.953404 0.000000 -0.301697
-0.090652 -0.077584 -0.009173 -0.992648 0.000000 -0.121038
-0.086242 -0.077913 0.029040 -0.953404 -0.000001 0.301697
-0.058539 -0.076760 0.069724 -0.606209 -0.000001 0.795305
-0.071573 -0.036809 -0.056361 -0.817906 0.000000 -0.575351
-0.086414 -0.037373 -0.028495 -0.953404 0.000000 -0.301697
-0.090652 -0.036980 -0.009173 -0.992648 0.000000 -0.121038
-0.086146 -0.036779 0.029343 -0.953404 0.000000 0.301698
-0.058539 -0.036652 0.069724 -0.606209 0.000000 0.795305
-0.061451 0.003502 -0.052823 -0.785509 -0.001542 -0.618848
-0.076127 0.002128 -0.027373 -0.948528 -0.001584 -0.316688
-0.081023 0.007972 -0.002621 -0.999785 -0.009994 -0.018185
-0.075561 0.002127 0.029271 -0.945791 -0.008086 0.324676
-0.061461 0.042707 -0.052839 -0.759311 0.001580 -0.650726
-0.076142 0.042214 -0.027529 -0.438435 0.005943 -0.898743
-0.063992 0.043349 -0.009653 -0.996196 0.000000 0.087141
-0.074936 0.043169 0.031059 -0.999944 -0.000090 -0.010623
-0.061426 0.083318 -0.052780 -0.735728 0.001598 -0.677276
-0.076328 0.082177 -0.027174 -0.442852 0.005904 -0.896575
-0.063992 0.083023 -0.009653 -0.996196 0.000000 0.087141
-0.074939 0.082803 0.031065 -0.999985 0.000000 -0.005423
-0.061393 0.122533 -0.052724 -0.735728 0.001599 -0.677275
-0.076513 0.122111 -0.026820 -0.447789 0.005860 -0.894120
-0.063992 0.122698 -0.009653 -0.996196 0.000000 0.087141
-0.074939 0.122437 0.031065 -0.999975 0.000000 -0.007130
-0.061368 0.163150 -0.052682 -0.735727 -0.001598 -0.677276
-0.076611 0.163524 -0.026632 -0.436903 0.014503 -0.899392
-0.063762 0.163526 -0.007018 -0.996196 0.000000 0.087139
-0.074939 0.163486 0.031065 -0.999961 0.000000 -0.008888
-0.061402 0.202350 -0.052738 -0.735728 -0.001598 -0.677275
-0.076470 0.202056 -0.026902 -0.465739 -0.005694 -0.884904
-0.063992 0.203517 -0.009653 -0.996196 0.000000 0.087141
-0.074939 0.203120 0.031065 -0.999944 0.000000 -0.010578
-0.061436 0.242945 -0.052797 -0.738913 -0.001595 -0.673799
-0.076284 0.242112 -0.027258 -0.461184 -0.005736 -0.887286
-0.081089 0.267395 -0.002493 -0.920246 -0.305467 0.244618
-0.074939 0.242754 0.031065 -0.999925 0.000000 -0.012239
-0.061469 0.282134 -0.052853 -0.766023 -0.001573 -0.642811
-0.076098 0.282196 -0.027613 -0.455826 -0.005785 -0.890050
-0.081033 0.283369 -0.002603 -0.999802 0.003986 -0.019496
-0.075599 0.282684 0.029336 -0.939668 0.001234 0.342086
-0.061443 0.321355 -0.052808 -0.656950 0.243458 0.713544
-0.076118 0.321372 -0.027357 -0.363627 0.247497 0.898065
-0.080273 0.320175 -0.010233 -0.162956 0.957898 0.236382
-0.075511 0.320999 0.029181 -0.056967 0.974240 0.218199
-0.048269 -0.321468 -0.076643 -0.657586 -0.416234 -0.627957
-0.050942 -0.321468 -0.047058 0.000000 -1.000000 0.000000
-0.050832 -0.321468 -0.006110 0.000000 -1.000000 0.000000
-0.050728 -0.321468 0.032877 0.000000 -1.000000 0.000000
-0.050540 -0.321468 0.072828 0.000000 -1.000000 0.000000
-0.046051 -0.317144 -0.078453 -0.477742 0.000000 -0.878500
-0.050801 -0.317118 0.075622 -0.606209 0.000000 0.795305
-0.046051 -0.277070 -0.078453 -0.477743 0.000000 -0.878500
-0.050801 -0.277046 0.075622 -0.606209 0.000000 0.795305
-0.046051 -0.236996 -0.078453 -0.477742 0.000000 -0.878500
-0.050801 -0.236975 0.075622 -0.606209 0.000000 0.795305
-0.046051 -0.196921 -0.078453 -0.477742 0.000000 -0.878500
-0.050801 -0.196903 0.075622 -0.606209 0.000000 0.795305
-0.046051 -0.156846 -0.078453 -0.477742 0.000000 -0.878500
-0.050801 -0.156831 0.075622 -0.606209 0.000000 0.795305
-0.046051 -0.116770 -0.078453 -0.477742 0.000000 -0.878500
-0.050801 -0.116760 0.075622 -0.606209 0.000000 0.795305
-0.046051 -0.076695 -0.078453 -0.477742 0.000000 -0.878500
-0.050801 -0.076688 0.075622 -0.606209 0.000000 0.795305
-0.046051 -0.036620 -0.078453 -0.477742 0.000000 -0.878500
-0.050619 -0.007416 0.063546 -0.591045 0.218966 0.776350
-0.050801 -0.036617 0.075622 -0.606209 0.000000 0.795305
-0.046574 0.003491 -0.066065 -0.568064 -0.001444 -0.822983
-0.050025 0.003491 0.063683 -0.572971 -0.001441 0.819574
-0.041974 0.003490 0.069240 -0.566453 -0.001440 0.824093
-0.046603 0.042565 -0.066113 -0.568063 -0.001445 -0.822984
-0.050026 0.042576 0.063685 -0.606676 0.001552 0.794948
-0.042004 0.042554 0.069288 -0.532046 -0.001444 0.846714
-0.046634 0.083031 -0.066163 -0.572306 -0.001444 -0.820039
-0.049994 0.083061 0.063631 -0.614173 0.001550 0.789170
-0.041988 0.083016 0.069262 -0.495483 0.001501 0.868616
-0.046636 0.123499 -0.066166 -0.607249 0.001551 -0.794510
-0.049962 0.122155 0.063578 -0.614174 0.001550 0.789169
-0.041957 0.123484 0.069210 -0.476010 0.001500 0.879438
-0.046612 0.162578 -0.066127 -0.614220 -0.001550 -0.789133
-0.049938 0.162647 0.063538 -0.614173 -0.001551 0.789170
-0.041934 0.162558 0.069173 -0.476011 -0.001500 0.879438
-0.046645 0.203036 -0.066181 -0.597324 -0.001552 -0.801999
-0.049971 0.203123 0.063592 -0.614173 -0.001551 0.789170
-0.041966 0.203010 0.069225 -0.476011 -0.001498 0.879438
-0.046625 0.243512 -0.066149 -0.568063 0.001445 -0.822984
-0.050002 0.242199 0.063645 -0.614172 -0.001550 0.789171
-0.041998 0.243457 0.069276 -0.506061 -0.001500 0.862496
-0.046595 0.282600 -0.066101 -0.568064 0.001447 -0.822983
-0.050035 0.282665 0.063699 -0.597869 -0.001555 0.801592
-0.041996 0.282522 0.069275 -0.541110 0.001440 0.840950
-0.046458 0.320120 -0.066130 -0.616504 0.093420 -0.781790
-0.049867 0.321469 -0.050297 0.000000 1.000000 0.000000
-0.050977 0.321469 -0.010729 0.000000 1.000000 0.000000
-0.050823 0.321469 0.029946 0.000000 1.000000 0.000000
-0.041967 0.320208 0.069229 -0.056690 0.992336 0.109799
-0.010190 -0.321468 -0.086735 0.000000 -1.000000 0.000000
-0.009955 -0.321468 -0.047060 0.000000 -1.000000 0.000000
-0.010851 -0.321468 -0.006109 0.000000 -1.000000 0.000000
-0.010591 -0.321468 0.032879 0.000000 -1.000000 0.000000
-0.010325 -0.321468 0.072827 0.000000 -1.000000 0.000000
0.003955 -0.317730 -0.090989 0.065072 0.000000 -0.997881
-0.005998 -0.317617 -0.090700 -0.038274 0.000000 -0.999267
-0.010879 -0.316897 0.090467 -0.128886 0.000000 0.991659
0.003955 -0.277049 -0.090989 0.065072 0.000000 -0.997881
-0.005998 -0.277129 -0.090700 -0.038274 0.000000 -0.999267
-0.010879 -0.276501 0.090467 -0.128886 0.000000 0.991659
0.003955 -0.237771 -0.090989 0.065072 0.000000 -0.997881
-0.005998 -0.236642 -0.090700 -0.038274 0.000000 -0.999267
-0.005998 -0.236642 0.090700 -0.038274 0.000000 0.999267
0.003955 -0.197091 -0.090989 0.065072 0.000000 -0.997881
-0.005998 -0.197550 -0.090700 -0.038274 0.000000 -0.999267
-0.010879 -0.197102 0.090467 -0.128886 0.000000 0.991659
0.003955 -0.157812 -0.090989 0.065072 0.000000 -0.997881
-0.005998 -0.157063 -0.090700 -0.038274 0.000000 -0.999267
-0.010879 -0.156706 0.090467 -0.128886 0.000000 0.991659
0.003955 -0.117132 -0.090989 0.065072 0.000000 -0.997881
-0.005998 -0.116575 -0.090700 -0.038274 0.000000 -0.999267
-0.007638 -0.116484 0.090637 -0.038274 0.000000 0.999267
0.003955 -0.077854 -0.090989 0.065072 0.000000 -0.997881
-0.005998 -0.077483 -0.090700 -0.038274 0.000000 -0.999267
-0.010879 -0.077307 0.090467 -0.128886 0.000000 0.991659
0.003955 -0.037173 -0.090989 0.065072 0.000000 -0.997881
-0.005998 -0.036995 -0.090700 -0.038274 0.000000 -0.999267
-0.010879 -0.036911 0.090467 -0.128886 0.000000 0.991659
-0.007548 0.003518 -0.080442 -0.120521 -0.001240 -0.992710
-0.010669 0.003513 0.080064 -0.120522 -0.001241 0.992710
-0.006014 0.042930 -0.080678 -0.120521 -0.001242 -0.992710
-0.010699 0.042849 0.080109 -0.120522 -0.001241 0.992710
-0.006044 0.082335 -0.080724 -0.089711 -0.001220 -0.995967
-0.010728 0.082180 0.080155 -0.135960 -0.001251 0.990714
-0.006073 0.123144 -0.080767 -0.059189 0.001336 -0.998246
-0.010707 0.122923 0.080123 -0.164593 0.001369 0.986361
-0.006047 0.162556 -0.080730 -0.042711 -0.001323 -0.999087
-0.010682 0.162264 0.080086 -0.164593 -0.001366 0.986361
-0.006066 0.203364 -0.080757 -0.067857 0.001208 -0.997694
-0.010716 0.202995 0.080136 -0.160589 -0.001367 0.987021
-0.006036 0.242783 -0.080712 -0.097886 0.001225 -0.995197
-0.010721 0.242327 0.080144 -0.128105 0.001245 0.991760
-0.007569 0.283436 -0.080475 -0.120523 0.001242 -0.992710
-0.010690 0.283081 0.080096 -0.120521 0.001241 0.992710
-0.007540 0.321430 -0.080431 0.961814 0.244654 -0.122708
-0.009974 0.321469 -0.050297 0.000000 1.000000 0.000000
-0.010883 0.321469 -0.010732 0.000000 1.000000 0.000000
-0.010611 0.321469 0.029946 0.000000 1.000000 0.000000
-0.010343 0.321469 0.070041 0.000000 1.000000 0.000000
0.029287 -0.321468 -0.081674 0.000000 -1.000000 0.000000
0.029864 -0.321468 -0.047059 0.000000 -1.000000 0.000000
0.029130 -0.321468 -0.006108 0.000000 -1.000000 0.000000
0.029545 -0.321468 0.032879 0.000000 -1.000000 0.000000
0.029889 -0.321468 0.072825 0.000000 -1.000000 0.000000
0.029580 -0.317818 -0.086061 0.280879 0.000000 -0.959743
0.061812 -0.317055 0.066497 0.699654 0.000000 0.714482
0.032319 -0.316630 0.085021 0.387341 0.000000 0.921937
0.029580 -0.277657 -0.086061 0.280879 0.000000 -0.959743
0.061812 -0.277331 0.066497 0.699654 0.000000 0.714482
0.032319 -0.276604 0.085021 0.387341 0.000000 0.921937
0.029580 -0.237497 -0.086061 0.280879 0.000000 -0.959743
0.061812 -0.237607 0.066497 0.699654 0.000000 0.714482
0.032319 -0.236578 0.085021 0.387341 0.000000 0.921937
0.029580 -0.197337 -0.086061 0.280879 0.000000 -0.959743
0.061812 -0.197884 0.066497 0.699653 0.000000 0.714482
0.032319 -0.196553 0.085021 0.387341 0.000000 0.921937
0.029580 -0.157177 -0.086061 0.280879 0.000000 -0.959743
0.061812 -0.156688 0.066497 0.699653 0.000000 0.714482
0.032319 -0.156527 0.085021 0.387341 0.000000 0.921937
0.029580 -0.117017 -0.086061 0.280879 0.000000 -0.959743
0.061812 -0.116965 0.066497 0.699653 0.000000 0.714482
0.032319 -0.116501 0.085021 0.387341 0.000000 0.921937
0.029580 -0.076857 -0.086061 0.280879 0.000000 -0.959743
0.061812 -0.077241 0.066497 0.699653 0.000000 0.714482
0.032319 -0.076475 0.085021 0.387341 0.000000 0.921937
0.029580 -0.036697 -0.086061 0.280879 -0.000000 -0.959743
0.063356 -0.007707 -0.050526 0.718918 0.326364 -0.613712
0.042109 -0.006547 0.068838 0.495563 0.141580 0.856955
0.029886 -0.037805 0.085976 0.315634 0.000000 0.948881
0.033365 0.002164 -0.073653 0.396860 -0.000898 -0.917879
0.063205 0.003504 -0.050267 0.748543 -0.000605 -0.663086
0.062322 0.017650 -0.006389 0.996190 -0.000159 -0.087215
0.042099 0.002182 0.068853 0.499959 -0.000849 0.866049
0.033365 0.002164 0.073653 0.396902 -0.000903 0.917861
0.033326 0.042569 -0.073710 0.403392 -0.000888 -0.915027
0.063217 0.042757 -0.050290 0.748542 -0.000605 -0.663087
0.062167 0.042789 -0.008164 0.983015 0.000000 0.183527
0.042050 0.042911 0.068921 0.499959 -0.000849 0.866049
0.033326 0.042569 0.073709 0.403454 -0.000892 0.914999
0.033286 0.082969 -0.073767 0.414035 -0.000869 -0.910261
0.063229 0.083409 -0.050313 0.750891 -0.000604 -0.660426
0.062167 0.083402 -0.008164 0.983015 0.000000 0.183527
0.043074 0.083030 0.068369 0.499960 -0.000847 0.866048
0.033286 0.082969 0.073766 0.414097 -0.000876 0.910232
0.033319 0.123378 -0.073721 0.427922 0.001100 -0.903815
0.063241 0.122657 -0.050335 0.761665 -0.000600 -0.647971
0.062167 0.122564 -0.008164 0.983015 0.000000 0.183526
0.043091 0.123495 0.068399 0.496960 -0.000850 0.867773
0.033319 0.123378 0.073721 0.427983 0.001095 0.903786
0.030854 0.163458 -0.074717 0.355637 -0.001045 -0.934624
0.063246 0.163308 -0.050345 0.761580 -0.000750 -0.648071
0.062167 0.163176 -0.008164 0.983015 0.000000 0.183526
0.043091 0.162567 0.068399 0.484966 -0.000989 0.874532
0.033357 0.162350 0.073668 0.431686 -0.001086 0.902023
0.033304 0.202739 -0.073742 0.424058 -0.001107 -0.905634
0.063238 0.202560 -0.050329 0.758836 0.000600 -0.651281
0.062167 0.202339 -0.008164 0.983015 0.000000 0.183526
0.043086 0.203034 0.068390 0.499960 0.000847 0.866048
0.033304 0.202739 0.073742 0.424120 -0.001104 0.905605
0.033297 0.243140 -0.073751 0.410973 0.000876 -0.911647
0.063226 0.243218 -0.050306 0.748543 0.000605 -0.663086
0.062167 0.242952 -0.008164 0.983015 0.000000 0.183526
0.043069 0.243509 0.068361 0.499958 0.000850 0.866049
0.033297 0.243140 0.073750 0.411037 0.000880 0.911618
0.030930 0.283025 -0.074608 0.354585 0.000965 -0.935023
0.063214 0.282475 -0.050284 0.748542 0.000605 -0.663087
0.042063 0.282929 0.068903 0.499959 0.000851 0.866049
0.033335 0.282118 0.073696 0.400502 0.000896 0.916295
0.033373 0.321100 -0.073642 0.895648 0.250706 0.367371
0.029921 0.321469 -0.050296 0.000000 1.000000 0.000000
0.029213 0.321469 -0.010731 0.000000 1.000000 0.000000
0.029601 0.321469 0.029946 0.000000 1.000000 0.000000
0.033373 0.321100 0.073641 0.895651 0.250705 -0.367364
0.070087 -0.321468 -0.056806 0.654447 -0.415360 -0.631803
0.069680 -0.321468 -0.047061 0.000000 -1.000000 0.000000
0.069110 -0.321468 -0.006109 0.000000 -1.000000 0.000000
0.069682 -0.321468 0.032879 0.000000 -1.000000 0.000000
0.070531 -0.317697 -0.057117 0.997509 0.000000 0.070533
0.077535 -0.317443 -0.047153 0.859579 0.000000 -0.511003
0.088910 -0.317421 0.018243 0.973692 0.000000 0.227868
0.073292 -0.317802 0.053770 0.771496 0.000000 0.636234
0.070531 -0.277520 -0.057117 0.997509 0.000000 0.070533
0.077535 -0.276978 -0.047153 0.859579 0.000000 -0.511003
0.088910 -0.277655 0.018243 0.973692 0.000000 0.227868
0.073292 -0.277468 0.053770 0.771496 0.000000 0.636234
0.070531 -0.237342 -0.057117 0.997509 0.000000 0.070533
0.077535 -0.236512 -0.047153 0.859579 0.000000 -0.511003
0.088910 -0.236469 0.018243 0.973692 0.000000 0.227868
0.073292 -0.237134 0.053770 0.771496 0.000000 0.636234
0.070531 -0.197165 -0.057117 0.997509 0.000000 0.070533
0.077535 -0.197442 -0.047153 0.859579 0.000000 -0.511002
0.088910 -0.196703 0.018243 0.973692 0.000000 0.227868
0.073292 -0.196800 0.053770 0.771496 0.000000 0.636234
0.070531 -0.156988 -0.057117 0.997509 0.000000 0.070533
0.077535 -0.156977 -0.047153 0.859579 0.000000 -0.511002
0.088910 -0.156936 0.018243 0.973692 0.000000 0.227868
0.073292 -0.157857 0.053770 0.771496 0.000000 0.636234
0.070531 -0.116811 -0.057117 0.997509 0.000000 0.070533
0.077535 -0.116511 -0.047153 0.859579 0.000000 -0.511003
0.088910 -0.117169 0.018243 0.973692 0.000000 0.227868
0.073292 -0.117523 0.053770 0.771496 0.000000 0.636234
0.070531 -0.076634 -0.057117 0.997509 0.000000 0.070533
0.077535 -0.077441 -0.047153 0.859579 0.000000 -0.511003
0.088910 -0.077402 0.018243 0.973692 0.000000 0.227868
0.073292 -0.077190 0.053770 0.771496 0.000000 0.636234
0.070531 -0.037945 -0.057117 0.997509 0.000000 0.070533
0.070521 -0.010512 -0.046130 0.289825 0.940139 -0.179278
0.078990 -0.007852 0.017827 0.899190 0.381037 0.215100
0.073292 -0.036856 0.053770 0.771496 0.000000 0.636234
0.069333 0.003521 -0.041219 0.845146 -0.000459 -0.534535
0.069452 0.013820 -0.006366 0.013500 0.999908 -0.001183
0.073231 0.002122 0.033795 0.920015 -0.000322 0.391882
0.069343 0.042939 -0.041236 0.845146 -0.000459 -0.534536
0.072837 0.043447 0.018009 -0.087139 0.000000 -0.996196
0.073238 0.043115 0.033810 0.918424 -0.000323 0.395597
0.069354 0.082356 -0.041253 0.845146 -0.000459 -0.534536
0.072837 0.083210 0.018009 -0.087139 0.000000 -0.996196
0.073230 0.082695 0.033794 0.915768 0.000486 0.401708
0.069359 0.123181 -0.041260 0.839387 0.000617 -0.543535
0.072837 0.122974 0.018009 -0.087139 0.000000 -0.996196
0.073218 0.122277 0.033772 0.915767 0.000486 0.401709
0.069349 0.162603 -0.041243 0.837190 -0.000618 -0.546912
0.072837 0.162738 0.018009 -0.087139 0.000000 -0.996196
0.073210 0.163273 0.033756 0.915767 -0.000483 0.401709
0.069362 0.203424 -0.041265 0.841524 0.000460 -0.540219
0.072837 0.202500 0.018009 -0.087139 0.000000 -0.996196
0.073221 0.202850 0.033778 0.915768 -0.000486 0.401708
0.069351 0.242847 -0.041248 0.845146 0.000456 -0.534535
0.072837 0.242263 0.018009 -0.087139 0.000000 -0.996196
0.073233 0.242425 0.033799 0.915785 -0.000486 0.401668
0.069341 0.282272 -0.041231 0.845146 0.000459 -0.534535
0.078824 0.283483 0.017521 0.970913 0.003134 0.239410
0.073236 0.283416 0.033806 0.919438 0.000323 0.393235
0.069330 0.320290 -0.041215 0.034792 0.983631 -0.176802
0.069307 0.321469 -0.010729 0.000000 1.000000 0.000000
0.073229 0.320173 0.033792 0.047613 0.977418 0.205881
